# .PCD v0.7 - Point Cloud Data file format
VERSION 0.7
FIELDS x y z
SIZE 4 4 4
TYPE F F F
COUNT 1 1 1
WIDTH 1339
HEIGHT 1
VIEWPOINT 0 0 0 1 0 0 0
POINTS 1339
DATA ascii
-0.003618503 -0.17337997 0.8170256
0.012441171 -0.17842397 0.8197245
-0.0062659914 -0.17489953 0.82096446
-0.0058268849 -0.17561705 0.81949031
0.014468196 -0.17557417 0.82049561
0.015113555 -0.17415939 0.81931633
-0.0063629211 -0.17390186 0.82179493
-0.0054866374 -0.17229117 0.81974763
0.014914838 -0.17180641 0.82179111
0.01519837 -0.17307398 0.81968844
-0.0053748209 -0.16956928 0.82090968
0.01558796 -0.17032628 0.82024455
-0.0014507151 -0.16418879 0.81914276
0.016387912 -0.16592529 0.82057279
-0.004261822 -0.16362441 0.82035136
0.016840925 -0.16309424 0.82101667
-0.003565917 -0.16002524 0.81998068
0.017464776 -0.1609091 0.82034451
-0.0031968451 -0.15776992 0.82023436
-0.0027408577 -0.15609382 0.81977361
0.017750792 -0.15786785 0.82172471
0.018280324 -0.15677503 0.82037657
-0.0026634641 -0.15468445 0.82044971
0.018602764 -0.15397801 0.82088709
-0.0022132397 -0.15170759 0.82077295
0.019194087 -0.15158816 0.8201378
-0.0016429714 -0.1484299 0.82077104
0.019701231 -0.14831845 0.82054788
-0.0011098577 -0.14600135 0.82039768
0.020207331 -0.14538898 0.82082093
-0.00036423333 -0.14255619 0.82021528
0.00014470142 -0.14113368 0.81930077
0.020819746 -0.1424084 0.82091945
0.021206278 -0.14195079 0.81954759
0.00086133246 -0.1405551 0.81576443
0.00042676419 -0.13842745 0.82025415
0.021274621 -0.1393186 0.82109326
0.0013989791 -0.13783188 0.81843215
0.021639459 -0.13630806 0.82085741
0.0012062471 -0.13370617 0.82060605
0.02164064 -0.1336285 0.82013464
0.0020115601 -0.13023876 0.82039189
0.018731445 -0.13997304 0.81208408
0.019238314 -0.13065957 0.81925291
0.021225937 -0.13375349 0.81918156
0.0025609592 -0.1280724 0.82032919
0.0034538638 -0.12740055 0.81914228
0.013854066 -0.12728292 0.81931484
0.015734943 -0.13002397 0.8194828
0.018849051 -0.12761219 0.82126516
0.002864453 -0.1254418 0.8215192
0.0041507236 -0.12560323 0.81950706
0.0083924988 -0.12657374 0.81802052
0.010988657 -0.12630722 0.81897926
0.011779977 -0.1307845 0.81917959
0.015860569 -0.12543756 0.82140958
0.0050794734 -0.12192956 0.82144415
0.0073277522 -0.12627488 0.82027316
0.010214596 -0.12242541 0.82157856
-0.0072494219 -0.18328536 0.82470286
-0.0044050999 -0.18364476 0.82459712
-0.0017564647 -0.18323222 0.82481468
0.0029795046 -0.18307699 0.8245523
0.0042743888 -0.18322729 0.82440341
0.0077137905 -0.18347025 0.82389337
0.011337194 -0.17849496 0.82164508
-0.0038890881 -0.17777839 0.82147241
-0.0036639178 -0.17770678 0.82062542
-0.0014216718 -0.18241771 0.82303613
0.0014468379 -0.18238281 0.82336909
0.0043597771 -0.18242867 0.82283133
0.0078582987 -0.17787437 0.82023042
0.010861337 -0.18016881 0.82234645
0.012188482 -0.18083411 0.82350796
-0.0048050089 -0.1736168 0.82145578
0.013288155 -0.17802173 0.82349032
-0.0071539744 -0.17532946 0.82365113
0.013908598 -0.17553964 0.82340777
-0.0019305889 -0.16731939 0.82014561
0.014426257 -0.17260687 0.82349622
-0.0063348808 -0.16983238 0.82435054
-0.0056531494 -0.16921492 0.82221878
0.014805935 -0.16939926 0.8242808
0.015220496 -0.16830353 0.82336241
-0.0033981989 -0.16550954 0.82119936
0.015421741 -0.16592453 0.82418513
-0.0050248858 -0.16309115 0.82375681
0.015869042 -0.16415529 0.82383567
-0.0011973446 -0.15906616 0.82107997
0.016756061 -0.15978833 0.82394427
-0.003043412 -0.15571381 0.8207975
0.017479792 -0.15856849 0.82226074
-0.0035920623 -0.15459378 0.82405508
0.017592514 -0.15520665 0.82399046
0.018196367 -0.15368383 0.822694
-0.0030452721 -0.15174779 0.82399112
-0.0012329953 -0.15001333 0.81925333
0.01842439 -0.15049452 0.82405335
-0.0012580361 -0.14827099 0.82165593
0.018935861 -0.14935425 0.8227973
-0.0015423361 -0.14457609 0.82313091
0.019468898 -0.14538839 0.82362878
0.00061750744 -0.14280505 0.82084012
0.020105628 -0.14210048 0.8237412
-0.00011932038 -0.13976645 0.82153279
0.020461185 -0.14039995 0.82377273
0.021123055 -0.13890992 0.82240999
-0.00030714646 -0.13669991 0.82437146
0.00020446989 -0.13567764 0.82303602
0.020927213 -0.13655527 0.82478452
0.0213186 -0.13603304 0.82319629
0.0015250458 -0.13409689 0.81968123
0.021639461 -0.13307126 0.82277536
0.0012000647 -0.13051631 0.8232941
0.02096564 -0.12961908 0.82222933
0.021579958 -0.13028984 0.82302606
0.0010745851 -0.13292165 0.82178837
0.020260794 -0.12721744 0.82262838
0.019830374 -0.13189855 0.8227219
0.0023155657 -0.12504315 0.8233012
0.0031007458 -0.12392557 0.82240278
0.014268165 -0.12321415 0.822474
0.017007833 -0.1282056 0.82167715
0.019385088 -0.12772432 0.82271844
0.0028544611 -0.12195933 0.82420939
0.0042997883 -0.12494494 0.82184279
0.0065322369 -0.12067741 0.82223463
0.010309793 -0.12130482 0.82243627
0.013165889 -0.12538308 0.82212037
0.016061896 -0.12208758 0.8239342
0.01871217 -0.12245089 0.82495332
0.0044697286 -0.12202185 0.82317179
0.0090435464 -0.12408163 0.82193679
0.011076468 -0.12251306 0.82309997
0.01314951 -0.11944224 0.82479811
0.0073156324 -0.11662377 0.82490808
0.0039463593 -0.17297903 0.81784248
-0.0075615109 -0.18399103 0.82645434
-0.0044747461 -0.18468006 0.8262074
-0.0013778378 -0.18313317 0.82565248
0.0030168744 -0.18245642 0.82561535
0.0043711658 -0.18441857 0.8261103
0.0087906849 -0.1823054 0.82462895
0.010016141 -0.18139464 0.82475042
-0.006669932 -0.17630222 0.82251072
0.01153503 -0.18178023 0.82629752
0.012228929 -0.18074758 0.82547051
-0.008461386 -0.17850301 0.82641184
0.012609688 -0.17843369 0.82644463
-0.0038767892 -0.17234072 0.82425964
0.013261148 -0.17552949 0.82621694
-0.0064034117 -0.17062676 0.82473511
0.013781061 -0.17168829 0.82688749
-0.006819563 -0.16923645 0.82638955
0.014148609 -0.17026319 0.82625347
0.00066338805 -0.16305673 0.82172632
-0.0021361921 -0.15787229 0.81673169
0.01468285 -0.16660962 0.82670248
0.015203966 -0.16577139 0.82507336
-0.0061034793 -0.1645788 0.82684124
-0.0019320258 -0.16166016 0.82365662
0.015366835 -0.16346091 0.82628798
-0.0052214852 -0.16016495 0.82671034
0.015923006 -0.16101564 0.82605898
-0.0020215942 -0.15561721 0.82382882
0.016619178 -0.15695167 0.82638222
-0.0043161032 -0.1545862 0.82701057
0.017070716 -0.15463512 0.82642031
-0.00074708555 -0.14998077 0.82400459
0.017679548 -0.1518638 0.82613111
0.018066552 -0.15111738 0.82510304
0.002632702 -0.1478578 0.82182813
-0.0027498074 -0.14761607 0.82571459
0.017884605 -0.14884764 0.82741767
0.018362002 -0.14767487 0.82623959
-0.0030758856 -0.14647917 0.82790977
-0.0026140427 -0.1457219 0.82648206
0.018739779 -0.14544718 0.82649195
0.000376076 -0.14301035 0.82456475
0.019349957 -0.1428173 0.82609987
-0.0014453378 -0.13926093 0.82695216
0.01997309 -0.13913621 0.82659411
0.0009407262 -0.139558 0.81996602
0.020656988 -0.13648567 0.82599163
0.021035135 -0.13504836 0.82553732
-0.00054506789 -0.13410933 0.82728821
0.00019367097 -0.13274051 0.82567328
0.020882823 -0.13485375 0.82610571
0.02121778 -0.13301398 0.82611006
0.0023171264 -0.13216484 0.82425869
0.021507056 -0.13014862 0.8260839
0.0030156379 -0.13049833 0.82344764
0.021626649 -0.1275499 0.82683402
0.0017808845 -0.12475815 0.82669848
0.01998537 -0.1233988 0.82510769
0.021183109 -0.12581161 0.82518142
0.0031904525 -0.12613508 0.82183027
0.0031427569 -0.12010998 0.82667524
0.014903937 -0.12604651 0.82312781
0.01922984 -0.12268729 0.82529104
0.019852148 -0.12486855 0.8247751
0.0028915405 -0.11856607 0.82707453
0.0047129844 -0.12151346 0.82352829
0.010433583 -0.11762199 0.8251515
0.012679123 -0.12021957 0.82407886
0.015602571 -0.11988592 0.8254928
0.018620148 -0.11886914 0.8274703
0.0043323692 -0.11574375 0.8262952
0.0080345031 -0.11680937 0.82505113
0.010856598 -0.1154443 0.82678694
0.013032696 -0.11631563 0.82697934
0.0046498314 -0.11297186 0.82759607
0.006253486 -0.12094226 0.82554239
-0.0071438574 -0.18678741 0.82995433
-0.0044828369 -0.18702035 0.82919401
-0.0015112838 -0.18520062 0.82778037
0.0026640922 -0.1859763 0.82832766
0.0047942465 -0.18725866 0.82934028
0.0080304667 -0.18703759 0.82989943
0.0092577254 -0.18612908 0.83096421
-0.0092358179 -0.18431827 0.82973731
-0.0037438448 -0.18179302 0.82523876
-0.0024695266 -0.18589194 0.82807744
0.0014771984 -0.18575463 0.82822454
0.0030667679 -0.18580095 0.828004
0.0099038426 -0.18475351 0.82923907
-0.00673375 -0.18079709 0.82698792
0.011239355 -0.1809916 0.82969618
-0.0048276945 -0.17772965 0.82610303
0.011807157 -0.17874482 0.82953632
0.012061398 -0.17822686 0.82885855
-0.0090933647 -0.17575018 0.83005869
-0.0087630125 -0.17534769 0.82902235
0.012563501 -0.17541784 0.82898873
-0.0038329565 -0.17301977 0.82673216
0.012716415 -0.17299822 0.82998639
-0.0077895331 -0.16966437 0.82946008
0.013383185 -0.16974805 0.82976985
-0.0071731289 -0.16682945 0.82933944
0.014102511 -0.16615081 0.82949245
-0.006738977 -0.16342959 0.83010727
0.020094238 -0.14734922 0.80727124
0.014657957 -0.16369446 0.82915139
0.01503423 -0.16279282 0.82826394
-0.0061364393 -0.16140367 0.82946235
-0.0032507691 -0.15573242 0.82217312
0.01485562 -0.16086583 0.83052427
0.01524574 -0.15982163 0.82954615
-0.0044972533 -0.15879251 0.82793349
0.015769545 -0.15768705 0.82907397
-0.0047542192 -0.15358855 0.82954758
0.016223695 -0.15498762 0.82930988
-0.0014387995 -0.15654323 0.82504719
0.016897481 -0.15065318 0.82989562
-0.0039364602 -0.14897414 0.82943904
0.017420018 -0.14956903 0.82880133
-0.003301945 -0.14546645 0.82963502
-0.0029035131 -0.1440735 0.8289969
0.017764207 -0.14600129 0.83014643
0.018249422 -0.14496036 0.82888389
-0.0033039965 -0.1438245 0.83087325
-0.0027069291 -0.14236094 0.82959425
0.018625198 -0.14179184 0.82980949
-0.0022743593 -0.13951273 0.83011293
0.019306757 -0.13985111 0.82876605
-0.0015206897 -0.13658918 0.82945967
0.019705206 -0.13622917 0.82974988
0.00074739743 -0.13447754 0.82630974
0.020243263 -0.13348082 0.82968521
-0.00042009316 -0.13106421 0.82911777
0.020626685 -0.13118105 0.83008391
0.021175133 -0.13037361 0.82837182
0.0003855752 -0.12748192 0.82969397
0.021313811 -0.12780981 0.82948434
0.0017953299 -0.12379757 0.83047843
0.021568855 -0.1246278 0.82962364
0.0026512134 -0.12158941 0.82940912
0.0032229663 -0.1203139 0.83025825
0.019908454 -0.12385207 0.82814825
0.0026139978 -0.11768897 0.82953423
0.0030455056 -0.11975479 0.82972318
0.019863861 -0.11841025 0.82847917
0.020157527 -0.12062705 0.82790512
0.0026791103 -0.11574227 0.82944185
0.0031546804 -0.11540617 0.82810986
0.012923343 -0.11437266 0.82832587
0.015342086 -0.1206943 0.82741487
0.018390737 -0.11877396 0.82876521
0.021332102 -0.11668066 0.83076745
0.0026445563 -0.11389999 0.83016014
0.004306131 -0.11320668 0.82783669
0.0075264079 -0.1117861 0.82832432
0.010771948 -0.11272495 0.82866383
0.013001576 -0.12040339 0.82696015
0.016085085 -0.11345099 0.83025485
0.0044444338 -0.11301941 0.82899237
0.0075320229 -0.11391244 0.82854033
0.0093282321 -0.11445862 0.82837468
0.012421812 -0.11064286 0.83078647
0.0047409264 -0.10746118 0.83073664
0.0065989532 -0.10782707 0.83026463
-0.0033719256 -0.18903792 0.83287209
-0.001308986 -0.18928078 0.8333298
0.0028552245 -0.18936247 0.83352149
0.0042555407 -0.18903399 0.83302945
-0.0077986773 -0.18720271 0.83145982
-0.0046653389 -0.18847148 0.83193064
-0.0016981754 -0.18876348 0.83174199
0.00082383986 -0.18882097 0.83146423
0.0046617272 -0.18876196 0.83208841
0.0076274867 -0.18746097 0.83268231
0.0097226901 -0.18405005 0.83267438
-0.010221451 -0.18104613 0.83173132
0.010496127 -0.18152164 0.83221501
-0.010143964 -0.1782515 0.83263445
0.011044713 -0.17843375 0.83248097
-0.0096421223 -0.17468025 0.83243948
0.011477682 -0.17634837 0.83218956
0.012022334 -0.17461464 0.8313688
-0.0063053868 -0.17298293 0.83031726
-0.0087418957 -0.17128071 0.83143026
0.011833549 -0.17266205 0.8334806
0.012449458 -0.17200637 0.83167547
-0.0090869311 -0.16971678 0.8335582
-0.0084922062 -0.1694748 0.83194143
0.012646955 -0.16944201 0.83274561
-0.0074102446 -0.16704035 0.83026063
0.013505803 -0.16622292 0.83176231
-0.0060445555 -0.16482331 0.82877517
0.014017673 -0.16289109 0.83241963
-0.0066843 -0.15992859 0.83242673
0.014401875 -0.16112575 0.83197635
-0.0045141112 -0.16133215 0.82785255
-0.0056211567 -0.15646102 0.83109522
0.014763829 -0.15785809 0.83283949
0.015261746 -0.15646708 0.8316679
-0.0061200564 -0.15506195 0.83382696
-0.005571309 -0.15454973 0.83209056
0.015394451 -0.15368229 0.83353662
-0.0036579072 -0.15385269 0.82978398
0.016195146 -0.15201712 0.83173829
-0.0016546549 -0.1517123 0.82943571
0.016759202 -0.14824313 0.83263856
-0.0040805554 -0.1456455 0.83265662
0.017269643 -0.1455418 0.83250028
-0.0033845261 -0.14770392 0.82889092
-0.0028739909 -0.14109053 0.83124167
0.017768789 -0.14334227 0.83222973
0.018090703 -0.14271103 0.83130616
-0.0032683522 -0.1405886 0.83337885
-0.0026155151 -0.1385408 0.83233011
0.018425221 -0.13904904 0.83275324
0.00010751226 -0.1411538 0.82989633
0.018914912 -0.13613224 0.83289981
0.00015411987 -0.13685256 0.83021647
0.019413888 -0.13396552 0.83261746
-0.0010637803 -0.12968279 0.83295822
0.019970104 -0.13036001 0.83318615
-0.00059017807 -0.12787572 0.83288592
0.00016184806 -0.12628117 0.83194059
0.020713683 -0.12781818 0.83230627
0.021078333 -0.12731074 0.83132011
-0.0002854378 -0.12580898 0.83364391
0.0030253672 -0.12988703 0.82974434
0.020924781 -0.12540935 0.83339226
0.021333402 -0.12399446 0.83239812
0.0055561867 -0.12993848 0.82913512
0.0039787213 -0.12084293 0.83279139
0.0068464009 -0.12119084 0.83344001
0.021567229 -0.12204275 0.83253783
0.004145158 -0.12305028 0.83028489
0.0033227976 -0.11983868 0.83239305
0.021675767 -0.12204242 0.83059329
0.0019160663 -0.11571761 0.83245349
0.020133724 -0.11442226 0.83139014
0.021900758 -0.11552782 0.83278871
0.0018894948 -0.11862004 0.82936078
0.014752882 -0.11119137 0.83131456
0.01669847 -0.11592673 0.82941961
0.019562157 -0.11268473 0.83238411
0.019702025 -0.11754697 0.83067995
0.0029455149 -0.11098608 0.83139318
0.0033634149 -0.1093578 0.83159184
0.011087324 -0.10845701 0.83181435
0.014027066 -0.1091424 0.83255714
0.015500069 -0.11222947 0.83172214
0.019338163 -0.11087298 0.83373725
0.0055201394 -0.10969534 0.8310461
0.0072001149 -0.10854945 0.83099002
0.010645013 -0.10707159 0.8326385
0.014997359 -0.11747258 0.82797074
0.005020516 -0.10450342 0.83331531
0.0095216753 -0.11180601 0.82901877
0.010022135 -0.10484707 0.83390176
-0.0037495724 -0.18929532 0.83423966
-0.0017739608 -0.18932912 0.8343153
0.005290404 -0.18857551 0.83521962
0.0070099174 -0.18758291 0.83451933
0.0084641678 -0.18503451 0.83552164
0.009316084 -0.18392891 0.83448803
-0.010775243 -0.18017767 0.83441645
0.0089340555 -0.18293174 0.83664531
0.0096900137 -0.18141957 0.83541816
-0.010562119 -0.17801924 0.83570009
0.0099568907 -0.17932267 0.83591902
-0.010563836 -0.17539603 0.83581513
0.010755153 -0.17573956 0.83542615
-0.010212353 -0.17226285 0.83570415
0.011305073 -0.17249081 0.83569908
-0.0094650565 -0.16951407 0.83498538
0.011770811 -0.17040609 0.83542234
0.012274683 -0.1685288 0.83478087
-0.009220181 -0.16712123 0.83611119
-0.0085899094 -0.16586803 0.83498055
0.012609864 -0.16618456 0.8354516
-0.0082040643 -0.16294269 0.83573568
0.012979615 -0.16423304 0.83548003
-0.0076188026 -0.16033591 0.83539981
0.013554457 -0.1606538 0.83574986
-0.0069516473 -0.15753303 0.83509672
0.014133664 -0.15711829 0.83588737
-0.0064876974 -0.15407299 0.83578968
0.014544232 -0.15533756 0.83552951
0.015077859 -0.15433192 0.83427811
-0.005775115 -0.15159583 0.83493572
0.014865325 -0.15201142 0.83675194
0.015425657 -0.15086237 0.83561105
-0.00332183 -0.15122202 0.83270955
0.015886405 -0.14969362 0.83473986
-0.0040697609 -0.14419527 0.83373529
0.016444279 -0.14579667 0.83537489
-0.0025610966 -0.14190976 0.83212942
0.016924147 -0.14170459 0.83651847
-0.0034778866 -0.13928965 0.83499098
0.017591678 -0.14008106 0.83522117
0.0024347003 -0.13765317 0.82752275
-0.0028619317 -0.13589619 0.83508784
0.017812051 -0.13743807 0.83632165
0.018306319 -0.13608286 0.83537358
-0.0025489039 -0.13387561 0.83550411
0.018789224 -0.13305379 0.83571577
-0.0019391304 -0.13050026 0.83575058
0.019426368 -0.13075873 0.83504903
-0.00098920974 -0.13359165 0.83160621
0.020074474 -0.12717557 0.83545405
-0.00059041294 -0.12502322 0.83543921
0.020322774 -0.12524888 0.83596933
-0.00019922346 -0.1221597 0.83647507
0.0008282577 -0.12438895 0.83330977
0.0059630619 -0.12193936 0.83448929
0.0063869581 -0.12127896 0.83440751
0.020880828 -0.12243509 0.83582944
0.021218529 -0.12142194 0.83507764
0.0012359302 -0.11878712 0.83493841
0.021322289 -0.11866859 0.83628535
0.0011646635 -0.11530155 0.83529633
0.02169661 -0.11613844 0.83631325
0.001524735 -0.11303874 0.83476686
0.022115001 -0.11220521 0.83554941
0.024466489 -0.11128383 0.83498776
0.0020195951 -0.10927238 0.83583462
0.017565517 -0.10846095 0.83446145
0.019497983 -0.10967901 0.83463132
0.022357872 -0.11284439 0.83370525
0.025872247 -0.10974315 0.83524925
0.0030580109 -0.11663282 0.83265197
0.0033435945 -0.10508908 0.83516061
0.011087359 -0.10531589 0.83411551
0.012641835 -0.1145987 0.83236516
0.016686602 -0.10629135 0.83563131
0.018311406 -0.11266296 0.83468533
0.004018588 -0.1064082 0.83352518
0.0070867324 -0.10305852 0.83444136
0.010879638 -0.10636788 0.83325702
0.012119155 -0.11185508 0.83353978
0.016223809 -0.10452591 0.83671075
0.0048146681 -0.10095354 0.83629608
0.0067377477 -0.10595814 0.83452064
0.010443462 -0.10129651 0.83670378
0.0055025951 -0.18737449 0.83705235
0.007419853 -0.18399446 0.83914024
0.0085899532 -0.18199983 0.83849806
0.0092152562 -0.18085761 0.83736801
-0.010491379 -0.17772241 0.8387509
0.0089978362 -0.1786821 0.83947855
0.0095918812 -0.17811258 0.83822232
-0.01105056 -0.17475027 0.83845633
0.010166454 -0.17521259 0.83811671
-0.0069274949 -0.16900104 0.83494055
0.010755723 -0.17222741 0.83809102
-0.010627209 -0.16968115 0.83843023
0.011176676 -0.16940856 0.83852416
-0.0087288702 -0.16385078 0.83608848
0.011768305 -0.16691999 0.83817273
0.012302605 -0.16507648 0.83738971
-0.0092912987 -0.16381598 0.83871186
-0.0087729497 -0.16225703 0.83800858
0.011876315 -0.16442887 0.83976823
0.012464123 -0.16306593 0.83846188
-0.0091155106 -0.1615365 0.83978218
-0.0059896493 -0.15602089 0.8326022
0.012838259 -0.16084142 0.838413
-0.0053051272 -0.15558918 0.83450842
0.013515425 -0.15740651 0.83824182
-0.0073337872 -0.15488516 0.838283
0.013913765 -0.15384914 0.83927608
-0.0033317453 -0.1494935 0.83482128
0.014321097 -0.15255103 0.83853769
-0.006296068 -0.14922088 0.83853889
0.018551011 -0.14011246 0.81198007
0.01471526 -0.14921565 0.83931422
0.015321764 -0.1479888 0.83796471
-0.0060257153 -0.14612721 0.83994728
-0.0055421456 -0.14574188 0.83823425
0.015594925 -0.14507826 0.8390094
-0.0038587209 -0.14162979 0.83549196
0.01612098 -0.14321063 0.83845919
-0.0024131446 -0.13891545 0.83471876
0.016866909 -0.13942967 0.8385185
-0.0037445331 -0.13640179 0.8380568
0.017356902 -0.13536803 0.83968282
-0.0035013172 -0.13371418 0.83930886
0.0034367971 -0.13399154 0.82948589
0.017669456 -0.13444258 0.83917248
0.018348636 -0.13314927 0.83748335
-0.0030561392 -0.13111517 0.83964229
-0.0027124207 -0.13016197 0.83897179
0.018655274 -0.12997505 0.83862638
-0.0010730162 -0.1286197 0.83460814
0.019086568 -0.12798359 0.83851033
-0.0001877922 -0.12549771 0.8345409
0.019707749 -0.12488665 0.83839518
-0.00079682103 -0.12078027 0.8386448
0.020349061 -0.12112413 0.83870411
0.0015768094 -0.1213084 0.83390886
-0.0035335063 -0.17754647 0.81554276
0.020958133 -0.11914658 0.83780646
0.021284204 -0.11805192 0.83716094
-0.00026430268 -0.11650894 0.83922094
0.00032815788 -0.11564448 0.83774871
0.020867905 -0.11665036 0.83986109
0.021265747 -0.11596037 0.83845407
0.00029822142 -0.11817698 0.83701426
0.018877884 -0.12204712 0.83452648
0.0012533545 -0.10953166 0.83845222
0.022194698 -0.10917465 0.83796823
0.0017052108 -0.10688913 0.83865529
0.020299861 -0.10675804 0.8373847
0.020608978 -0.113591 0.83673763
0.023809031 -0.12198199 0.82957643
0.0026591844 -0.10239872 0.83883488
0.0021594206 -0.12662634 0.82946759
0.013998014 -0.10236555 0.83738899
0.015721232 -0.10907809 0.8358925
0.018853167 -0.10826658 0.83713055
0.025594443 -0.10450964 0.83975208
0.0027990798 -0.10183836 0.83895415
0.0041697095 -0.10016852 0.83769417
0.0086163562 -0.099222958 0.83747709
0.011046837 -0.099726535 0.83806944
0.013439813 -0.099891499 0.83894402
0.016173176 -0.10992631 0.83601952
0.0053618802 -0.10158278 0.83733386
0.0080563575 -0.10263531 0.83659202
0.0091317156 -0.10378853 0.83704346
0.012594719 -0.098625958 0.83951837
0.0051818895 -0.0950616 0.83965349
0.0073391008 -0.095671669 0.83955169
0.0077230707 -0.18126717 0.84143525
-0.0082654636 -0.17658529 0.83399171
0.0084204795 -0.17876719 0.84133679
0.0091141742 -0.17733811 0.84036976
-0.014034354 -0.17462462 0.84237182
-0.011546054 -0.17528439 0.84112012
0.0088176727 -0.17637235 0.84216702
0.0094031282 -0.17520352 0.84112191
-0.015333816 -0.17325768 0.84237713
-0.013048379 -0.17240025 0.84149563
-0.011617074 -0.17248292 0.84018409
0.0098537663 -0.17234376 0.84171325
-0.015237324 -0.16918296 0.8427279
-0.012975406 -0.16961356 0.84198815
-0.011506272 -0.16957663 0.84061635
0.010344795 -0.16985121 0.84160024
-0.015106059 -0.16790916 0.84245718
-0.013360314 -0.16767472 0.84279162
-0.0077613895 -0.16663219 0.83705038
0.010993751 -0.16657281 0.84142244
-0.0092038233 -0.16370587 0.83836645
0.011194162 -0.16366066 0.84261346
0.012018935 -0.16263244 0.8401286
-0.0096360762 -0.16096489 0.84195262
-0.0088496748 -0.15974775 0.84015709
0.011694249 -0.16118565 0.84240991
0.01246513 -0.15976152 0.84067398
-0.0092400135 -0.15844262 0.84248465
-0.0046766042 -0.15853615 0.83697212
0.012603738 -0.15748934 0.84178966
-0.0080302376 -0.15451132 0.84129268
0.013173491 -0.15517938 0.84114218
-0.0046860334 -0.15333508 0.83842713
0.013748707 -0.15117417 0.84157073
-0.0065495865 -0.14992356 0.83905751
0.014131446 -0.14858763 0.841901
-0.0061631682 -0.14496833 0.84123611
-0.005853273 -0.14430967 0.84052068
0.014708381 -0.14614539 0.84144831
0.01519759 -0.1453615 0.84017116
-0.006067466 -0.14383256 0.8417604
-0.005663353 -0.14271651 0.84083414
0.015547821 -0.14195901 0.84158289
-0.0051902789 -0.139575 0.8413654
0.016056931 -0.14024523 0.84087652
-0.0044513438 -0.13930158 0.83875537
0.016778287 -0.13637514 0.84114379
-0.0041563432 -0.1334866 0.84207577
0.017211528 -0.1330359 0.84208274
-0.0034482873 -0.13056891 0.84143239
0.017837109 -0.1314583 0.84065485
0.018188681 -0.13045344 0.84002125
-0.0026222463 -0.14315891 0.82871079
-0.0026801885 -0.12679337 0.84108776
0.017861325 -0.12873241 0.84245896
0.018493425 -0.12739088 0.84107131
-0.0020621459 -0.12428399 0.8405534
0.018962549 -0.12396797 0.84174687
-0.0017595585 -0.12163027 0.8412686
0.019671464 -0.12178139 0.84069884
-0.0013040771 -0.11859532 0.84169245
0.020053437 -0.11865669 0.84154016
-0.00088114914 -0.11558858 0.84241092
0.020787844 -0.11519957 0.84129876
0.021005778 -0.11462226 0.84062034
-6.9394868e-05 -0.12138738 0.83613682
0.00014746354 -0.11186196 0.84108222
0.020869408 -0.11336409 0.84258759
0.021288963 -0.11281653 0.84086353
0.00055043306 -0.10929938 0.84135741
0.02176822 -0.10982238 0.84151632
0.0007935146 -0.11506473 0.83611584
0.022244474 -0.10978848 0.83918482
0.0015755236 -0.10427741 0.84121215
0.020358318 -0.10268082 0.84034318
0.022431474 -0.10602654 0.84010047
0.025250306 -0.10335864 0.8415851
0.0020162554 -0.10419551 0.83959144
0.017011249 -0.09979862 0.84040445
0.018644881 -0.10336167 0.83991611
0.022550866 -0.10174865 0.84215939
0.01276796 -0.12410031 0.8293255
0.0021951217 -0.10983545 0.83514631
0.0036174553 -0.09776739 0.84007651
0.0099548986 -0.096226007 0.84005082
0.012281219 -0.10193252 0.83828372
0.016399156 -0.10046263 0.83997732
0.01859927 -0.097813159 0.84270221
0.0046000513 -0.094657689 0.84120244
0.0076594311 -0.094359621 0.84064102
0.011672026 -0.098578297 0.83953696
0.012989928 -0.095303901 0.84208584
0.0053921309 -0.091963619 0.84231204
0.0065614516 -0.098172955 0.83850491
0.010099516 -0.092811257 0.84268671
0.0077456338 -0.17820337 0.84367925
0.008301165 -0.17529707 0.84491509
0.0087829558 -0.17277816 0.84534705
0.009161911 -0.17261946 0.84424299
0.0096885283 -0.16915846 0.84475404
-0.011169683 -0.16691454 0.84334892
0.010298559 -0.16612002 0.84437597
-0.010647394 -0.16388515 0.84485149
0.010848165 -0.16341132 0.84421563
-0.010055057 -0.1604272 0.84415555
0.011142642 -0.16111003 0.8446663
-0.009632594 -0.15763377 0.84472734
0.011765528 -0.15765901 0.84490424
0.012021773 -0.15738772 0.84405762
-0.0092234174 -0.15503056 0.84519452
-0.0087572541 -0.15420644 0.84419698
0.012491011 -0.15456809 0.84424531
-0.0082081463 -0.15127948 0.8445347
0.01284958 -0.15138245 0.84488362
-0.0078214342 -0.1486901 0.84495395
0.013413539 -0.14876154 0.84456676
-0.0070763072 -0.14584401 0.84410447
0.014033253 -0.14548625 0.84472978
-0.005955854 -0.14554317 0.84003508
-0.005880272 -0.14100678 0.8430388
0.01470251 -0.14284098 0.844208
-0.00605697 -0.14004199 0.84448236
-0.0058878497 -0.13886018 0.84478325
0.014824667 -0.14070243 0.84543318
0.01549533 -0.13906866 0.84417105
-0.0023848661 -0.14017519 0.84056956
0.015841926 -0.1355506 0.84533954
-0.0021529128 -0.1363284 0.84134316
0.016508617 -0.13427861 0.84382123
-0.0040103411 -0.12963761 0.84426612
0.017089861 -0.13016631 0.84447771
-0.003695162 -0.12795137 0.8440699
0.017370688 -0.12709713 0.84553146
-0.0032775172 -0.12468145 0.84484398
-0.0027661831 -0.12389152 0.84350538
0.017746914 -0.12552865 0.84510338
0.018254228 -0.12482377 0.84367883
-0.00045832602 -0.12507789 0.8419655
0.018725254 -0.1212519 0.84466583
-0.0019359415 -0.12298121 0.8410821
0.019383367 -0.11861467 0.84422719
-0.0013344922 -0.11556599 0.84416896
0.019890876 -0.11580719 0.84431869
0.0012419034 -0.11640438 0.84175903
0.020324234 -0.11259271 0.84513748
-0.00029193691 -0.10975219 0.84439242
0.020798124 -0.11054897 0.84519476
0.02139248 -0.10942851 0.84376711
-1.9163012e-05 -0.10774221 0.84483737
0.00026816243 -0.10679378 0.84439474
0.02154823 -0.10692688 0.8448121
0.00069733319 -0.10338724 0.84507036
0.022138743 -0.10383172 0.84388983
0.0013882577 -0.10087702 0.84417057
0.022190485 -0.10046371 0.84425408
0.024307167 -0.10532824 0.83952415
0.0019152105 -0.097891964 0.84452355
0.017887864 -0.096328631 0.84346259
0.020135188 -0.097645625 0.84389251
0.019897025 -0.10209198 0.84209335
0.025885791 -0.098181471 0.84470916
0.0025025026 -0.094167411 0.84543914
0.0036612081 -0.09348949 0.8433159
0.011726564 -0.093264267 0.84302229
0.013764314 -0.097697854 0.84065038
0.016612411 -0.097601257 0.84185433
0.01929787 -0.095251791 0.84504604
0.021254282 -0.095621929 0.8459239
0.0056544999 -0.096834525 0.84092629
0.0073635168 -0.090520829 0.84348226
0.010649373 -0.091649532 0.84377998
0.011887045 -0.09950915 0.84227204
0.016286889 -0.092346109 0.84555268
0.0056910822 -0.092259057 0.84301931
0.0069373837 -0.092051446 0.84275305
0.010419321 -0.08941853 0.84532297
0.012729291 -0.089824706 0.84591442
0.0078852652 -0.17511231 0.84621567
0.0081942994 -0.17275947 0.84745407
0.0091930041 -0.16907275 0.8468104
-0.010814715 -0.16541944 0.84605116
0.009663091 -0.16622476 0.84686607
-0.01086181 -0.16435724 0.84708166
0.0099556614 -0.16347264 0.84769869
-0.01066469 -0.16052215 0.84692967
0.01065218 -0.1604632 0.84720314
-0.010300111 -0.15739492 0.84758931
0.011073586 -0.15759194 0.84776402
-0.0076181563 -0.15146676 0.84251446
0.011697215 -0.15433209 0.84747219
-0.005894945 -0.1483115 0.84088266
0.011857416 -0.15238833 0.84821492
0.012302642 -0.15138802 0.84708643
-0.0091565866 -0.14924982 0.84878731
-0.0063768816 -0.14710303 0.84357238
0.012756897 -0.14856803 0.84740192
-0.0079256641 -0.14552069 0.84759551
0.013407491 -0.1459817 0.84674978
-0.0055068936 -0.14183556 0.84464747
0.014056332 -0.14214033 0.84736723
-0.0066365274 -0.13929527 0.84719336
0.014363177 -0.13942997 0.84838295
-0.0018264658 -0.13674268 0.84177589
-0.0056051761 -0.13519983 0.84640312
0.014873614 -0.13754848 0.84768015
0.015354324 -0.13639724 0.84657472
-0.0060918792 -0.13457592 0.84874701
-0.0038443499 -0.13392825 0.84136176
0.015675247 -0.13310538 0.84787315
-0.0038389827 -0.1309281 0.84403223
0.016388886 -0.13062713 0.84692252
-0.0022671465 -0.12785752 0.84338635
0.016943879 -0.12742297 0.84712178
-0.0038795853 -0.12430173 0.84747201
0.017462557 -0.12426134 0.84744126
-0.0019319173 -0.12272795 0.84264278
0.018179417 -0.12188888 0.84644294
-0.0032999651 -0.11960109 0.84876418
-0.00074940594 -0.12064429 0.84152186
0.018441392 -0.11892667 0.84765798
-0.0019996655 -0.11542835 0.84707338
0.018971881 -0.115266 0.84821856
-0.001737815 -0.130077 0.84019762
0.019599421 -0.11342814 0.84720582
-0.00080064253 -0.11747108 0.84466028
0.02025583 -0.1095783 0.84770358
-0.00047170403 -0.10628525 0.8476631
0.0020063359 -0.14275967 0.83277011
0.020521548 -0.10702065 0.84848714
0.021047311 -0.10597045 0.84737235
-0.00013959309 -0.10489098 0.84737682
0.0023015803 -0.12926795 0.83734822
0.021340612 -0.10382006 0.8476125
0.00070973899 -0.10006378 0.84737647
0.021878745 -0.10027947 0.84756136
0.0036096047 -0.11738817 0.84075695
0.019769674 -0.10381719 0.84484535
0.02472911 -0.096588641 0.84634352
0.0017117432 -0.095111422 0.8472262
0.019535964 -0.09349519 0.84656984
0.020925486 -0.09956269 0.84617335
0.023829779 -0.1019192 0.84493572
0.0017531146 -0.099320799 0.84524137
0.003216482 -0.090382077 0.84651119
0.01469193 -0.090555631 0.84617734
0.01509009 -0.099881999 0.84338313
0.019413939 -0.091827251 0.84764284
0.0044832327 -0.096585594 0.84448397
0.01255484 -0.1773985 0.81596619
0.011027494 -0.087904379 0.84664863
0.012193729 -0.094950609 0.84513909
0.016254088 -0.094935142 0.84602976
0.018773891 -0.08944919 0.84890103
0.0047175656 -0.085945338 0.84737653
0.0071843145 -0.085681558 0.84728581
0.010185061 -0.085728012 0.84792846
0.012701176 -0.086445272 0.84835917
0.0052080932 -0.083782345 0.84866738
0.01151279 -0.12797508 0.83292246
-0.012107064 -0.16238351 0.84987682
-0.011500408 -0.16234064 0.85033661
0.0093359053 -0.16374816 0.84967726
-0.011389761 -0.16058819 0.85027367
0.0096380319 -0.16073811 0.85083115
-0.01081139 -0.1574751 0.85028231
0.010417027 -0.15697986 0.8505708
-0.0073150694 -0.15616478 0.84669894
0.010920246 -0.15488993 0.85011142
-0.0098938663 -0.15142812 0.85071248
0.011332368 -0.15173243 0.85075474
-0.0037745244 -0.15477805 0.83918017
-0.0089072715 -0.14773169 0.84942889
0.011913967 -0.14893776 0.85039175
0.012137952 -0.14813976 0.85014337
-0.0091633778 -0.14650762 0.85140747
-0.0086088004 -0.1452789 0.85024005
0.011975273 -0.1468994 0.85180444
0.012645734 -0.14539248 0.85032916
-0.0082600592 -0.14278769 0.8508935
0.013140041 -0.14194907 0.85113239
-0.0074604149 -0.13936147 0.8503114
0.013706971 -0.13981362 0.85055786
-0.0070074284 -0.13718784 0.8502546
0.014347434 -0.13615419 0.85085583
-0.006530433 -0.13403592 0.85079324
-0.0059567578 -0.13311453 0.8493247
0.014791245 -0.1339726 0.85060453
0.015141696 -0.13324668 0.8499496
-0.0061225262 -0.13083842 0.85148633
-0.0038671759 -0.13085932 0.84624505
0.014866943 -0.13157511 0.8519308
0.015587681 -0.13031785 0.85023677
-0.0051362556 -0.12759259 0.85004431
0.016019477 -0.12653968 0.85134745
-0.0046843467 -0.12425143 0.8506484
0.016699281 -0.12523489 0.84969652
-0.0044133454 -0.12158328 0.8515594
0.017273879 -0.12116937 0.85081398
-0.0034431266 -0.11894387 0.84982085
0.017837603 -0.11802304 0.85091418
0.018024284 -0.1171704 0.85075366
-0.0033276353 -0.11637927 0.85126352
-0.0028288823 -0.11547209 0.85014957
0.017972302 -0.11579201 0.85199785
0.018398788 -0.11598047 0.85011643
-0.0020110186 -0.11872106 0.8454693
0.018949891 -0.11204032 0.85065979
-0.0020150747 -0.11037473 0.85088551
0.019502547 -0.10938335 0.8506276
0.0011963289 -0.10784163 0.85047966
0.020185279 -0.10633994 0.85032612
0.0034019835 -0.10507008 0.84997386
0.020546366 -0.10313653 0.85146934
0.02112712 -0.10261179 0.84947252
0.0062848087 -0.11920485 0.83924538
7.2356343e-05 -0.10087648 0.84928346
0.020910656 -0.10104058 0.85158968
0.021165773 -0.10088691 0.85058665
-9.699502e-05 -0.098828502 0.85146171
0.00015345149 -0.1002691 0.84952056
0.021520635 -0.098010309 0.85106939
0.0033147773 -0.096186049 0.85062104
0.022136562 -0.094340973 0.85057455
0.0015420392 -0.09147653 0.85063887
0.02048021 -0.090512387 0.84930658
0.022078153 -0.094096474 0.84927571
0.025556477 -0.092622794 0.85049009
0.0019641079 -0.090950646 0.85072625
0.017064128 -0.087715574 0.84926826
0.019500453 -0.094225802 0.84836245
0.021553233 -0.088401362 0.85181379
0.0035148852 -0.091992222 0.84900552
0.0033486886 -0.084668994 0.8505761
0.0035863004 -0.12701435 0.83348
0.012753644 -0.091243386 0.84716535
0.015695883 -0.085515708 0.85058814
0.016502732 -0.093588404 0.84691912
0.004293994 -0.086939685 0.8482843
0.0069694198 -0.093101233 0.84335905
0.01123698 -0.083450526 0.85061103
0.012594268 -0.09002766 0.84729618
0.015813174 -0.083820008 0.85157651
0.0041164523 -0.083066776 0.85139352
0.0064966916 -0.081981979 0.85112244
0.010448318 -0.080874376 0.85166013
-0.010385564 -0.16281524 0.85281295
-0.011280914 -0.16082393 0.85227084
0.0090676686 -0.15944935 0.85318154
-0.010901542 -0.15685073 0.8537153
0.0095714638 -0.1576404 0.85326689
-0.01024814 -0.15466459 0.85365075
0.010223614 -0.15471165 0.85300291
-0.010109263 -0.15138815 0.85394925
0.010727301 -0.15177684 0.85314721
-0.0098356036 -0.14796135 0.85382748
0.011232478 -0.14839645 0.85369301
-0.0094424412 -0.14502329 0.85439301
-0.0089144055 -0.14438152 0.85232031
0.011790875 -0.14516348 0.85397083
0.012212005 -0.14477418 0.85248393
-0.0091822436 -0.14345519 0.85427886
-0.0088507328 -0.14231175 0.85363805
0.01193887 -0.14321716 0.85484827
0.012464314 -0.14257543 0.8533414
-0.008284769 -0.1401576 0.85298169
0.012860849 -0.13948573 0.85419446
-0.006964725 -0.13991693 0.84884816
0.013664346 -0.13659124 0.85324734
-0.0040064575 -0.13737369 0.8488037
0.014276921 -0.13292636 0.85369891
-0.0066294083 -0.1307607 0.85363132
-0.0059969695 -0.12922974 0.85214847
0.01465336 -0.13032587 0.8542217
-0.0062897569 -0.1280314 0.85423148
0.00027324317 -0.13563605 0.84386414
0.014860445 -0.12894407 0.85436219
0.015309596 -0.12773044 0.85346156
-0.0041062338 -0.12579224 0.84865558
0.015674282 -0.12448256 0.85436112
-0.00463048 -0.12663536 0.848719
0.016521368 -0.12072702 0.85401994
-0.00061407953 -0.12026409 0.84821749
0.017190546 -0.11881773 0.85305136
-0.0036102801 -0.11520539 0.85340893
0.017537147 -0.11505009 0.85433328
0.00066473894 -0.10914097 0.85321903
-0.0027698441 -0.11182564 0.852723
0.018155249 -0.11321175 0.85308486
0.00049120211 -0.10739209 0.85324568
0.018554114 -0.10990118 0.85388714
0.0013667853 -0.11534856 0.84765643
0.019380864 -0.10593595 0.85368794
0.0011910603 -0.10748482 0.84944785
0.019838853 -0.10432101 0.85331041
-0.00057083071 -0.099309482 0.85316104
0.020294148 -0.10089593 0.85400617
0.021027707 -0.099511988 0.85212511
0.003978068 -0.10881513 0.84528106
0.021312254 -0.096764721 0.85335469
-7.29577e-05 -0.095666237 0.85374993
0.0033072047 -0.094062649 0.85283244
0.021736434 -0.094385974 0.85372394
0.0008267326 -0.098978907 0.84908473
0.021978179 -0.091518268 0.85303891
0.0049815634 -0.098747969 0.84673446
0.020900629 -0.087170377 0.85201412
0.022060439 -0.091399595 0.85151583
0.001966174 -0.086377189 0.85299319
0.019902006 -0.084871754 0.85290176
0.021853179 -0.085817248 0.85415077
0.0028317133 -0.09137895 0.84970587
0.0088023962 -0.096234024 0.84460372
0.014133855 -0.081663571 0.85246342
0.016883234 -0.089675739 0.8485924
0.017103523 -0.087153837 0.85096836
0.021261413 -0.083766885 0.85481775
0.0065364284 -0.085030943 0.849437
0.0075435899 -0.078634799 0.85256433
0.010938802 -0.080505267 0.85232121
0.01361063 -0.082947724 0.85137892
0.016704729 -0.084756859 0.8513689
0.018400105 -0.080691591 0.85490459
0.004729073 -0.07711456 0.8540706
0.0064724735 -0.08313705 0.84996283
0.0099870507 -0.077020496 0.85423887
0.012760058 -0.07797797 0.85459447
-0.0097118486 -0.15446866 0.8551541
0.0093161389 -0.15480451 0.85646749
-0.010085572 -0.1508923 0.8551476
0.0099574327 -0.15149155 0.85633695
-0.010114111 -0.14878038 0.8560937
0.010540376 -0.14814524 0.856664
-0.0099224299 -0.14562064 0.85662723
0.011073216 -0.14570372 0.85649383
-0.0094929514 -0.14254652 0.85636646
0.011569847 -0.14255564 0.85684615
0.012169521 -0.14107749 0.85561448
-0.0090413252 -0.14082727 0.85551828
-0.0087761385 -0.13922185 0.85589695
0.011947658 -0.13932519 0.85777795
0.012409336 -0.13968815 0.8557815
-0.0082764626 -0.1364551 0.85586834
0.01294292 -0.1362624 0.85632652
-0.007861062 -0.13336445 0.85660547
0.013469847 -0.13337861 0.85660344
0.0021954749 -0.12557219 0.84963781
0.013960148 -0.13088503 0.85660684
-0.0052515254 -0.12852857 0.84998876
0.01452436 -0.1270639 0.85705703
0.015033623 -0.12600835 0.855667
-0.0062974975 -0.12464422 0.85678363
-0.0059300824 -0.12367058 0.85591078
0.014968006 -0.12578754 0.85611534
0.015205465 -0.12495786 0.85579765
-0.0010358079 -0.1256837 0.83727551
-0.0015279681 -0.11721085 0.85532343
0.015759977 -0.12140488 0.85630834
-0.0049572638 -0.11876886 0.85577548
0.016305856 -0.11769036 0.85719037
-0.0026843853 -0.11755545 0.85228604
0.016797423 -0.11635341 0.85624111
-0.00068339921 -0.11504363 0.85133046
0.017358979 -0.11237244 0.85692436
0.018010877 -0.11107565 0.85516173
-0.0034546612 -0.10950298 0.85693616
0.017920764 -0.10996649 0.85640943
0.018180482 -0.10844827 0.85651898
0.0055806288 -0.12919447 0.81706363
-0.0026382762 -0.10644431 0.85586423
0.018627232 -0.1069854 0.85591578
-0.0020171939 -0.1028313 0.85614443
0.019304117 -0.10280814 0.85638553
0.0010514518 -0.098750994 0.85536045
0.019894097 -0.10026154 0.85613322
-0.0030490668 -0.10941185 0.85614616
0.020374745 -0.097874112 0.85624015
-0.00057090702 -0.094169706 0.85690427
0.020959314 -0.094859794 0.85638368
0.021234253 -0.09411592 0.85569257
-3.0365111e-06 -0.090480149 0.85738766
0.0039430857 -0.10077262 0.84653217
0.021393098 -0.091557555 0.85655767
0.00071327959 -0.088648193 0.85592508
0.021797711 -0.088288605 0.85675234
0.00113037 -0.084921397 0.85705614
0.021522375 -0.087274611 0.85395503
0.00064435595 -0.096847303 0.85138333
0.02023573 -0.081553161 0.8555392
0.020489706 -0.088461667 0.85422045
0.0027537313 -0.081557244 0.8551724
0.0031116358 -0.07900098 0.85512483
0.017170729 -0.078973211 0.85559446
0.016820351 -0.092428654 0.85331571
0.021323541 -0.079463601 0.85768801
0.0026064981 -0.076625168 0.85753012
0.0033492839 -0.087252773 0.85194367
0.0096615562 -0.089584142 0.85068381
0.011397983 -0.090663873 0.85295683
0.014054648 -0.088948764 0.85398149
0.018753232 -0.077559933 0.85739326
0.0028359997 -0.074824214 0.85760903
0.0030654364 -0.085571893 0.85262161
0.0073418864 -0.08189144 0.85185528
0.0095308451 -0.078423843 0.85680634
0.014030356 -0.074573562 0.85752463
0.0055084475 -0.071449295 0.85767478
0.0074541979 -0.071652412 0.85740125
0.0095520103 -0.071742177 0.85773498
0.0094226487 -0.15000483 0.85933363
-0.01027153 -0.14809576 0.85856456
0.0092421472 -0.14941761 0.86013567
-0.010362376 -0.14494652 0.85967112
0.010472538 -0.14549229 0.85882169
-0.010119488 -0.14238879 0.85960484
0.010971857 -0.14225872 0.85933703
-0.0095346589 -0.13974355 0.85922343
0.011485192 -0.13923086 0.85960174
-0.0093338257 -0.13759725 0.85975116
-0.0020648898 -0.13575155 0.848216
0.011850586 -0.13775367 0.85924399
0.012268588 -0.13652791 0.8585906
-0.0088220751 -0.13405806 0.86005437
0.012559805 -0.13359037 0.8597548
-0.008063484 -0.13042489 0.85958475
0.01298707 -0.13024534 0.8605538
-0.0073412647 -0.12686792 0.85934544
0.013912886 -0.1275135 0.85908198
-0.0066990131 -0.12434128 0.85855103
0.014267557 -0.12445137 0.85971999
-0.0063813687 -0.12148899 0.85928965
0.014755178 -0.12149171 0.86003602
0.015059241 -0.12051403 0.85971636
0.0020223886 -0.1002142 0.8561635
-0.0024329673 -0.1207056 0.8509506
0.015449609 -0.11914946 0.85925436
-0.0054776347 -0.11593223 0.85992599
0.016132511 -0.11517588 0.85965103
-0.0034617009 -0.11893215 0.85517329
0.016725317 -0.11243776 0.85933077
-0.0024839048 -0.1155833 0.85888606
0.01719442 -0.10993281 0.85923362
-0.0033571236 -0.1061154 0.8589744
0.017809454 -0.10562269 0.86023486
0.018076014 -0.10512544 0.85953742
-0.0052108848 -0.11733586 0.85859668
-0.00087834569 -0.10847659 0.85036641
0.018381016 -0.10422547 0.85902238
-0.0024251356 -0.1007603 0.85949135
0.018926837 -0.10070221 0.85945362
0.0010088227 -0.10865206 0.85412514
0.01965509 -0.096547954 0.8597641
-0.00088204723 -0.11145661 0.85754645
0.020111077 -0.095041804 0.85930163
0.00061882468 -0.095137842 0.85549647
0.020643717 -0.091997497 0.85955554
0.021171212 -0.090500414 0.858392
0.0026003737 -0.10479066 0.85216159
0.0036866078 -0.10625539 0.83902228
0.021293107 -0.087899595 0.85970515
-0.00013519764 -0.097853638 0.85251755
0.021702129 -0.085359015 0.85941821
-0.000408539 -0.090112127 0.8592838
0.021929916 -0.082634926 0.85915893
0.0029092808 -0.088995107 0.85886317
0.016450372 -0.12923747 0.83925825
0.020874454 -0.08278469 0.85751176
0.0020372085 -0.076860502 0.85928887
0.017836694 -0.075516313 0.85842448
0.019880228 -0.076120369 0.85923541
0.021961013 -0.07694032 0.86049956
0.0041167955 -0.085532151 0.85874587
0.0014180446 -0.093893476 0.85134667
0.013459396 -0.086424626 0.85531849
0.014804326 -0.082139224 0.85604262
0.016298909 -0.08971516 0.8557632
0.0040694484 -0.080113225 0.85694778
0.0083838599 -0.081221767 0.85451108
0.0080946339 -0.082226671 0.85611099
0.012210966 -0.082357503 0.85644603
0.015998879 -0.071142875 0.86078292
0.0059778467 -0.07612019 0.85953808
0.0074651996 -0.068491966 0.85963053
0.01025765 -0.068116009 0.86069608
0.0088897916 -0.14808206 0.86198103
-0.010028237 -0.14426072 0.86156827
0.0095556621 -0.14585738 0.86178875
-0.0099687614 -0.14187865 0.86249888
0.010011334 -0.14258872 0.86275178
-0.0099401725 -0.13984194 0.86288899
0.010642558 -0.13943429 0.86260134
-0.0098124668 -0.13676208 0.86317647
0.01119244 -0.13658163 0.86255163
-0.0094343619 -0.13353698 0.86314064
-0.008845075 -0.1324794 0.86132503
0.011802842 -0.13313372 0.86286491
0.012183274 -0.1323901 0.86197734
-0.0072965254 -0.15211812 0.8412174
-0.0086819045 -0.12948793 0.86273164
0.0124163 -0.13044792 0.86247832
-0.0034923106 -0.13650143 0.85388488
0.013211092 -0.1269895 0.8618989
-0.0076334388 -0.12436823 0.86224496
0.013457966 -0.12536797 0.86204851
-0.0041180844 -0.12847595 0.85709733
0.014122686 -0.12165345 0.86254829
-0.0064605093 -0.12590845 0.8564176
0.014683963 -0.11790958 0.86325747
0.015126698 -0.11733961 0.86195308
-0.0063891644 -0.11603533 0.8633908
-0.0068995235 -0.12682064 0.85951287
0.015485583 -0.11600759 0.86154419
-0.0060632145 -0.11396163 0.86385345
-0.00016302918 -0.12651697 0.85222393
0.015939398 -0.11233763 0.86237562
-0.0046640257 -0.11942687 0.85565138
0.016299641 -0.10887914 0.86354232
-0.0042916872 -0.11478662 0.85636866
0.017104791 -0.10696582 0.86190915
-0.00084348064 -0.11202036 0.85682726
0.017456371 -0.10400762 0.86279076
0.018063108 -0.10270005 0.86144072
-0.0033486767 -0.10068229 0.86319333
-0.0028590607 -0.099884227 0.86199898
0.017976951 -0.0995977 0.86393112
0.018151242 -0.099293768 0.86350381
-0.0031400449 -0.098482072 0.86392188
-0.0027091501 -0.1060861 0.85664505
0.018663432 -0.098334327 0.86228365
-0.0019113723 -0.094286218 0.86224973
0.019470073 -0.094053559 0.86241025
0.0048791743 -0.11477974 0.84820527
0.020061664 -0.091113411 0.86228055
0.00039536678 -0.099791571 0.85734558
0.020424584 -0.089036517 0.86253875
-0.00038824402 -0.085302889 0.86285615
9.8167307e-05 -0.084408373 0.86157584
0.020704933 -0.086123317 0.86336398
0.021160631 -0.084847778 0.86263388
0.017750792 -0.15786785 0.82172471
0.0047407062 -0.10077411 0.85205698
0.021528421 -0.082440384 0.8625713
0.00072109577 -0.079760216 0.86229253
0.021870634 -0.079385258 0.86255395
0.004110429 -0.089222692 0.85575539
0.020007091 -0.082433335 0.85877627
0.0037276808 -0.082193248 0.85773516
0.019611999 -0.080479749 0.86037898
0.020451618 -0.07853619 0.86023849
0.0023138595 -0.071240745 0.86250216
0.0030816072 -0.069962412 0.86148953
0.01360008 -0.069259532 0.86112183
0.015622642 -0.081130534 0.8570562
0.019159494 -0.070959851 0.86249638
0.0062938775 -0.075780101 0.85881579
0.0061592842 -0.081587784 0.85309631
0.0097778523 -0.071550526 0.8608458
0.012494102 -0.073647641 0.85883099
0.01519982 -0.077088639 0.85911393
0.018197251 -0.068646759 0.86356705
0.0066839987 -0.069680519 0.86192101
0.0061824066 -0.074370399 0.85881543
0.0092254709 -0.069441251 0.86151886
0.012966499 -0.065431118 0.86364794
0.005931322 -0.062965892 0.86385536
0.0071660043 -0.062828273 0.86372876
0.0091342125 -0.1444183 0.86462104
-0.0092546344 -0.14198907 0.86527508
0.008990732 -0.14322504 0.86646068
0.0093957959 -0.14223404 0.86545753
-0.0097472891 -0.13939802 0.86490136
0.009919812 -0.13971163 0.86533779
-0.01022644 -0.1361836 0.8653518
0.010598511 -0.13623704 0.86503839
-0.0037262465 -0.1334755 0.85682517
0.011208673 -0.13364035 0.86476088
-0.0094479015 -0.13066752 0.86545461
0.011506191 -0.13074075 0.86564386
0.012244402 -0.12907219 0.86422801
-0.0092290901 -0.12728857 0.86667711
-0.0087509658 -0.12733321 0.86486149
0.011934098 -0.12841703 0.86558509
0.0123411 -0.12692578 0.86522907
-0.0084671862 -0.12456536 0.86543959
0.012646535 -0.12483095 0.86582768
-0.0034773664 -0.12347659 0.85775691
0.013470481 -0.1211134 0.86567044
-0.0033839603 -0.12036269 0.85947227
0.014079079 -0.118794 0.86504155
-0.0067930445 -0.11610737 0.86505675
0.01452928 -0.11545055 0.86568147
0.015016908 -0.1143023 0.86462855
-0.0065367427 -0.11353678 0.86589283
-0.0057970337 -0.11166238 0.8645739
0.01490333 -0.11146349 0.86698937
0.015130828 -0.11169851 0.86589992
-0.0024217041 -0.11352742 0.8638832
0.015612978 -0.11003854 0.86524677
-0.0027431243 -0.11609221 0.85857928
0.016272549 -0.10600884 0.86570859
-0.0026882486 -0.10647342 0.86461908
0.016763251 -0.10322348 0.86583775
-0.0043681101 -0.10574846 0.86329794
0.017396031 -0.10048179 0.86542708
-0.0034839774 -0.097512528 0.86598462
-0.0027703959 -0.09648449 0.8641274
0.017794497 -0.097211927 0.86631668
0.018195575 -0.096408963 0.86540389
-0.0030536707 -0.094059743 0.86680108
-0.0022212972 -0.10154656 0.86147863
0.01864537 -0.094802916 0.86498857
-0.0022017723 -0.091714047 0.86513305
0.019059382 -0.091795444 0.86553591
0.00013753347 -0.092599317 0.86464977
0.019662736 -0.088184044 0.86594772
-0.0018197198 -0.094150037 0.86210966
0.020231619 -0.08559233 0.86565709
0.0014871953 -0.08769121 0.86405605
0.020563925 -0.083154023 0.86628115
0.0211151 -0.081654064 0.86517692
-0.00028316275 -0.078968309 0.86657345
-0.0014709681 -0.095303021 0.85937399
0.021240201 -0.079353742 0.86618662
0.010988657 -0.12630722 0.81897926
0.0004818411 -0.076615907 0.86521465
0.02175875 -0.076488473 0.86582297
0.0027629631 -0.07891582 0.86395264
0.022377312 -0.073423021 0.86525881
0.0016353922 -0.069618843 0.86605406
0.020367075 -0.069417864 0.86440539
0.021805709 -0.077605218 0.86099803
0.0015365513 -0.074347556 0.86346185
0.016759764 -0.066341653 0.86455297
0.019638181 -0.069528028 0.8650043
0.021710623 -0.068038203 0.86680835
0.0027471262 -0.064923607 0.86612624
0.0030976967 -0.075922966 0.85878438
0.012336751 -0.075966097 0.85702062
0.013857285 -0.067900904 0.86373651
0.01649195 -0.064608343 0.86570358
0.017007226 -0.081800409 0.85435426
0.0053781653 -0.070669793 0.85997707
0.0075722677 -0.074947543 0.86066914
0.011251741 -0.063233681 0.86458856
0.011845668 -0.074000202 0.86222327
0.016012261 -0.062553823 0.8669942
0.003747643 -0.071177058 0.8623504
0.0072650108 -0.059525471 0.86608577
0.010233054 -0.059898973 0.86652803
0.0091980966 -0.14102566 0.86715096
0.0093353745 -0.13885722 0.86820984
-0.012588618 -0.1358355 0.86831772
-0.011358774 -0.13670181 0.86703205
0.0098981317 -0.13666396 0.86761189
-0.012681007 -0.13403308 0.86905313
-0.0094435094 -0.13311845 0.86302018
0.010336445 -0.13375007 0.86802399
-0.010358842 -0.13066904 0.86878157
0.010751617 -0.13088079 0.86864734
-0.0079752272 -0.1278484 0.86143261
0.011502289 -0.12756753 0.86836505
-0.0058805798 -0.12660737 0.86186135
-0.0087786224 -0.12354833 0.86731279
0.011781164 -0.12485859 0.86938733
0.012299325 -0.12359188 0.8683722
-0.008575852 -0.12091482 0.86838704
0.012820476 -0.12125765 0.8682425
-0.0080504725 -0.11856755 0.86818075
0.013475816 -0.11788309 0.86814278
-0.0074182502 -0.11555212 0.86815846
0.013806267 -0.11577768 0.86821467
-0.005708898 -0.11417235 0.86253411
