# .PCD v0.7 - Point Cloud Data file format
VERSION 0.7
FIELDS x y z
SIZE 4 4 4
TYPE F F F
COUNT 1 1 1
WIDTH 1348
HEIGHT 1
VIEWPOINT 0 0 0 1 0 0 0
POINTS 1348
DATA ascii
0.021332035 -0.16168214 0.79797316
0.025805974 -0.16164154 0.796992
0.028629493 -0.16016892 0.79544407
-0.0010695208 -0.1570008 0.79700243
0.0016923135 -0.15736783 0.7964285
0.0054621124 -0.157552 0.7950933
0.0086053135 -0.15751126 0.79558569
0.010812674 -0.1572873 0.79657459
0.013637882 -0.15806614 0.79707181
0.015361891 -0.15825135 0.7977013
0.019935071 -0.15774 0.79739028
0.022836138 -0.15794215 0.7970354
0.028130841 -0.15704039 0.79614842
-3.3826578e-05 -0.15585446 0.79678583
0.0015553759 -0.15543827 0.79700136
0.0043717297 -0.15500227 0.79722869
0.0073817014 -0.15485765 0.79709917
0.0098899985 -0.15543698 0.7974112
0.022278532 -0.15476231 0.7968502
0.024972867 -0.15396899 0.79695642
0.029081058 -0.15419848 0.79702836
0.031239407 -0.15365854 0.79748565
-0.0020498442 -0.15273543 0.79773492
0.00026364948 -0.1513336 0.79788893
0.005359103 -0.1528416 0.79761434
0.0069665718 -0.15083593 0.79794252
0.023582466 -0.15251687 0.79592198
0.024082128 -0.1504056 0.79733628
0.030625306 -0.1510044 0.797176
0.0010265927 -0.14836343 0.79761362
0.0051450687 -0.14925452 0.79750514
0.0068021994 -0.14802155 0.79685777
0.025457827 -0.14810988 0.79672819
0.028137263 -0.14797181 0.79546666
-0.00031844442 -0.14502159 0.79632646
0.00062778429 -0.14484337 0.79635227
0.0038578701 -0.14605053 0.79732758
0.00096023537 -0.14339224 0.79660535
0.019997271 -0.1696703 0.79924899
0.021624334 -0.16894038 0.79888868
-0.00064751686 -0.16626112 0.80019718
0.0028374835 -0.1648975 0.79911727
0.0045715859 -0.16614205 0.79972297
0.0076677823 -0.16447867 0.79916328
0.01030122 -0.16544423 0.80064023
0.013404801 -0.16544995 0.80051261
0.016402865 -0.16510548 0.79941171
0.018915057 -0.1660372 0.79961115
0.021081127 -0.16470739 0.79843217
0.025747249 -0.16650249 0.79910195
0.026175162 -0.16789085 0.79726654
0.02650019 -0.16663387 0.79614884
-0.00019834783 -0.16402076 0.79851639
0.0011245338 -0.16424234 0.79877055
0.0055020009 -0.1648555 0.79802567
0.007796457 -0.1645927 0.79808116
0.010772026 -0.16464162 0.79928243
0.013342677 -0.16442643 0.79887962
0.01628175 -0.16454372 0.79854673
0.01988326 -0.16376427 0.79863751
0.019597076 -0.16288365 0.79854369
0.023144893 -0.16415511 0.79854226
0.0016240736 -0.16013436 0.80001307
0.020358244 -0.16014238 0.798186
0.022337873 -0.16089284 0.79954928
0.025449961 -0.16036256 0.79879123
0.027504286 -0.16008593 0.79909402
0.022790894 -0.16624354 0.79735345
-0.0047065234 -0.15858801 0.79854095
0.0019764088 -0.15763301 0.79959863
0.01410698 -0.15667117 0.79819643
0.016887473 -0.15776555 0.79827791
0.019133918 -0.15767692 0.79944742
0.022383442 -0.15750128 0.8009088
0.0258964 -0.15797745 0.7973417
0.028183073 -0.15834525 0.79698783
0.0022490963 -0.15452868 0.79997844
0.00414366 -0.15396953 0.79825765
0.0079567451 -0.15349278 0.79838228
0.010439574 -0.15414885 0.79846644
0.013735688 -0.15456489 0.79957145
0.017004624 -0.15628143 0.7994101
0.018793896 -0.15561563 0.80081946
0.021239448 -0.15538205 0.80052757
0.025806868 -0.15421207 0.79949927
0.029848373 -0.15440997 0.79869384
-0.00099864462 -0.15029898 0.79990458
0.0022475452 -0.15152568 0.80024368
0.0043985154 -0.15179916 0.79958856
0.007492858 -0.1526854 0.79904652
0.010224965 -0.15169945 0.80012661
0.012216601 -0.15180716 0.80092245
0.020143459 -0.15205693 0.80056393
0.022654444 -0.15119648 0.79942751
0.026555622 -0.15183997 0.80034214
0.028762126 -0.15127109 0.79985499
-0.00069068477 -0.14827245 0.80002117
0.0029892994 -0.14930011 0.80029434
0.0070564467 -0.15058833 0.798953
0.0077475109 -0.14969972 0.80069685
0.024980985 -0.14976066 0.80004883
-0.00019757339 -0.14666623 0.79876375
0.0015780434 -0.14611539 0.79991686
0.022834435 -0.14679678 0.80084085
0.0013059161 -0.14197415 0.79992652
0.015591908 -0.14177568 0.80084223
0.0036963879 -0.13848303 0.79993421
0.0093241287 -0.13488287 0.8007586
0.0091107925 -0.17361689 0.80163395
-0.0011929632 -0.16864261 0.80335271
0.0017967043 -0.16863123 0.80322975
0.0043879054 -0.16853961 0.80304432
0.0070629562 -0.16874807 0.80319017
0.009897789 -0.16804466 0.8039856
0.01376409 -0.1686713 0.80398655
0.016831759 -0.16870068 0.80338264
0.019282769 -0.16891159 0.80244309
0.021811744 -0.16965061 0.80307686
0.024709284 -0.1640981 0.80009526
0.028809395 -0.16880798 0.80218077
0.0026821799 -0.14997385 0.7942909
-0.0031206263 -0.16796529 0.80237204
-0.00096532441 -0.166959 0.80234671
0.0017706306 -0.16483176 0.80031687
0.0047417618 -0.16764484 0.80190212
0.0078639574 -0.16654436 0.80176139
0.010801892 -0.16684186 0.80277711
0.013644491 -0.16645518 0.80233884
0.015188978 -0.16576757 0.80119044
0.019895203 -0.16670105 0.80214739
0.0066213221 -0.1509431 0.7941668
0.010475977 -0.15872827 0.79988813
0.02091518 -0.16447343 0.80249929
0.021372987 -0.16291869 0.80244744
0.00097274571 -0.1607706 0.80294991
0.021718128 -0.16068675 0.80252689
0.0032813514 -0.15765235 0.80252904
0.020700758 -0.15641673 0.80147702
0.020765346 -0.15764211 0.80215049
0.024938796 -0.15697023 0.80183327
0.0021934505 -0.16371113 0.79700887
0.018418441 -0.16110089 0.79900807
0.0019298136 -0.15506536 0.80227423
0.016640387 -0.15364617 0.80136788
0.019762821 -0.15368086 0.80255616
0.021844475 -0.15419422 0.803146
0.022836138 -0.15794215 0.7970354
0.032403283 -0.15557808 0.80175084
-0.002864314 -0.15094212 0.80252761
0.0027615326 -0.15259467 0.80172104
0.0034838412 -0.15020882 0.80118334
0.011140672 -0.15065339 0.80125028
0.013503119 -0.152401 0.80130327
0.016346073 -0.15259668 0.80209965
0.018993286 -0.15243417 0.803141
0.023364477 -0.15255061 0.80355132
0.024426902 -0.15359078 0.80140257
0.027656458 -0.15190014 0.80201948
0.032206219 -0.15091898 0.80260062
-0.0040497114 -0.14792304 0.80325365
-0.0010192416 -0.14820033 0.80174822
0.0020445695 -0.1483397 0.80203885
0.0058990442 -0.14921416 0.80166358
0.0093620382 -0.14949788 0.80129963
0.010544178 -0.14813986 0.80273604
0.014142701 -0.14995533 0.80284423
0.022835594 -0.14869225 0.80180848
0.023409396 -0.15076528 0.80122757
0.028289318 -0.14954728 0.80306482
-0.0032393774 -0.14637038 0.80346632
-0.0014868879 -0.14540315 0.80257511
0.0012842907 -0.14546725 0.80317342
0.0045303106 -0.14586069 0.80292964
0.0075182626 -0.14614582 0.8030051
0.0098171365 -0.14674482 0.80352485
0.018836387 -0.14470907 0.80113572
0.02273827 -0.14486431 0.80378127
-0.0015430184 -0.1423143 0.80300206
0.001294042 -0.14290889 0.80294132
0.0037622794 -0.14290594 0.80346805
0.0063818945 -0.14222883 0.80268741
-0.0011222338 -0.13951898 0.80253011
0.0024566539 -0.13962525 0.80269206
0.0037219636 -0.14036429 0.8024869
0.0075110788 -0.13941701 0.80264729
0.020702427 -0.13832934 0.8025462
-1.0454205e-05 -0.13515908 0.803738
0.0017210639 -0.13656215 0.80288672
0.0051123397 -0.13637067 0.80300462
0.010564709 -0.13605365 0.80372685
0.00048752429 -0.13218421 0.80186224
0.0052057081 -0.13445899 0.80280811
0.0082369419 -0.13403425 0.80150193
0.0096457088 -0.13380192 0.80281085
-0.00219526 -0.17115782 0.80686969
0.0011594845 -0.17144439 0.80670094
0.0047007874 -0.17126697 0.80663091
0.0076629277 -0.17122138 0.8069092
0.01084305 -0.17131065 0.80676299
0.013835274 -0.17164226 0.8067444
0.015944786 -0.17148745 0.80618733
0.01277268 -0.16647905 0.80279034
0.021392079 -0.1719061 0.8061583
-0.0031036725 -0.16858836 0.80612516
-0.0010731606 -0.16968112 0.80589896
0.0014979962 -0.17029472 0.8054294
0.0072666151 -0.16851981 0.80384678
0.0078132041 -0.16992064 0.80540717
0.01122668 -0.16876325 0.80443406
0.013047898 -0.16936499 0.8049314
0.017226752 -0.16911457 0.80461574
0.019167434 -0.16989793 0.80549431
0.015321388 -0.16500793 0.80117542
0.024483852 -0.17069758 0.80489326
0.028351016 -0.17009905 0.80476624
0.00092218694 -0.1635533 0.80243331
0.019783089 -0.16689864 0.80543727
0.0037477578 -0.16143441 0.80348998
0.00010716004 -0.16304873 0.80464405
0.020653592 -0.16301434 0.80582571
-7.6782766e-05 -0.16092943 0.80655438
0.002050702 -0.15966824 0.80407184
0.021267984 -0.16088834 0.80496609
0.001897698 -0.15800804 0.80449444
0.021696484 -0.15738624 0.80581635
0.0012053619 -0.15425929 0.80551594
0.021621039 -0.15535451 0.80393666
0.0015553759 -0.15543827 0.79700136
0.001625764 -0.15151881 0.80558664
0.017960804 -0.15016523 0.80432349
0.019791413 -0.15076007 0.80482662
0.020444598 -0.15157567 0.80489349
0.024146765 -0.15124285 0.8041333
-0.0064196526 -0.14927301 0.80435389
0.0022147885 -0.14843458 0.80513155
0.014400222 -0.14801659 0.80447817
0.015435684 -0.14940262 0.80437058
0.019703448 -0.14888358 0.8058008
0.019235274 -0.15042469 0.80410594
0.025265684 -0.14842658 0.80499506
0.027878594 -0.14876497 0.80404556
-0.0060280096 -0.14504752 0.80546814
0.0025649478 -0.14518481 0.80598474
0.0050231651 -0.14451064 0.80449247
0.0079457872 -0.14431353 0.80465961
0.010878921 -0.14613287 0.8044768
0.012804921 -0.14645086 0.80499941
0.016686819 -0.14631251 0.80654711
0.014785733 -0.151021 0.80208468
0.023345927 -0.14609988 0.80474055
0.024692673 -0.14668034 0.8061496
-0.0046168147 -0.14338897 0.80506456
-0.00096388313 -0.14340407 0.80464387
0.0025980305 -0.14328021 0.80528563
0.0046786466 -0.14420399 0.80462557
0.01039395 -0.14542963 0.80380923
0.010227369 -0.14267047 0.80662602
0.022074169 -0.14173877 0.80557609
0.02466467 -0.14176236 0.80545151
-0.0044456627 -0.14089799 0.80687106
-0.0013327681 -0.14030999 0.80596298
0.0021949611 -0.139532 0.8054983
0.0043730224 -0.13944373 0.80534482
0.0064505041 -0.14071468 0.80657053
0.0093289716 -0.13884322 0.80415314
0.02052464 -0.13833503 0.80539024
0.022611009 -0.13806289 0.80545932
0.0045320843 -0.13646232 0.80521119
0.0073026819 -0.13579839 0.80526036
0.018421192 -0.13620441 0.80661738
0.022146264 -0.13722837 0.80533487
-0.0023866394 -0.13387471 0.80535299
0.0022128378 -0.13396527 0.80425858
0.0048748618 -0.13473941 0.80626768
0.007100807 -0.13354456 0.8056615
0.012541921 -0.13481578 0.80640745
0.021394202 -0.13487603 0.80472434
-0.00042782584 -0.12965387 0.80614841
0.0028201393 -0.1308548 0.80563968
0.0083911158 -0.13130254 0.80565566
0.011672004 -0.1289364 0.8044371
-0.0043090312 -0.17581515 0.8082248
-0.0027602059 -0.17685483 0.80974114
-0.0037118217 -0.17371827 0.80865443
0.00013464449 -0.17194894 0.80806005
0.0027917412 -0.17171963 0.80754173
0.004301331 -0.17258553 0.80858153
0.0081923595 -0.17168859 0.80780458
0.010751099 -0.17254819 0.80843002
0.013695653 -0.17233424 0.80801839
0.01731772 -0.17170708 0.80828506
0.019437646 -0.17174569 0.80785048
0.024327902 -0.17209484 0.80744249
-0.006965124 -0.169494 0.80791843
-0.0017490974 -0.16977595 0.80897409
0.01727324 -0.17053983 0.80715299
0.018512825 -0.16952895 0.80830371
-0.00093544705 -0.16527474 0.80647045
0.019273408 -0.16603296 0.80892217
0.00045246794 -0.1621816 0.80677193
0.019810718 -0.16444211 0.80827868
0.00051685557 -0.16044843 0.80764389
0.020420335 -0.16077784 0.80851483
-0.00038920878 -0.15760522 0.8095004
0.00019600785 -0.15688597 0.80780172
0.020886892 -0.15649353 0.80997068
0.021232603 -0.15734783 0.80783027
0.028167089 -0.15696551 0.80802351
0.00036207441 -0.15450032 0.80872774
0.021600585 -0.15470161 0.80795157
0.0042862347 -0.15219548 0.80721295
0.021761419 -0.15159531 0.80807817
0.0017441366 -0.14904581 0.80754423
0.020117963 -0.14731574 0.8072269
0.022003362 -0.1486534 0.80778533
0.024403933 -0.14774922 0.80777812
-0.0036753167 -0.14679088 0.80954409
0.0020220552 -0.14593254 0.80799788
0.014168818 -0.14420992 0.80714309
0.016445465 -0.14447848 0.80781031
0.019723266 -0.14594764 0.80820525
0.021910273 -0.14574641 0.80870545
0.024972867 -0.15396899 0.79695642
0.0025279715 -0.14274779 0.80910903
0.0086721927 -0.14398021 0.80531371
0.010570121 -0.14166012 0.80748188
0.012189469 -0.14347099 0.80713856
0.015041427 -0.14374706 0.80791843
0.018964371 -0.14382659 0.80938464
0.0069665718 -0.15083593 0.79794252
-0.002740249 -0.14073718 0.80744129
0.006434293 -0.14076045 0.80714428
0.0077812993 -0.13914557 0.80805808
0.012124852 -0.14024073 0.80817765
0.012750524 -0.1397182 0.80970943
0.015059752 -0.14076315 0.80991977
0.022895955 -0.13992403 0.80872548
0.025610467 -0.13951702 0.8081044
0.0047780564 -0.13708878 0.80871373
0.0093248291 -0.13897575 0.80747145
0.010525388 -0.13527831 0.80719608
0.024760099 -0.13560686 0.80873263
0.0021205686 -0.13372546 0.80983436
0.0051823184 -0.13381445 0.80807424
0.0069416324 -0.13347353 0.80930239
0.0094055943 -0.13373697 0.80722868
0.015423301 -0.13409184 0.80751401
-0.00058347033 -0.13158652 0.80771196
0.0074164136 -0.1314521 0.8083455
0.017279143 -0.13129093 0.80835003
-0.0037411398 -0.17722455 0.81162399
-0.0035962239 -0.17569201 0.81215394
-0.001131848 -0.17476365 0.81160963
0.0014947262 -0.17272533 0.81063771
0.0043187756 -0.17453018 0.81200635
0.0062005231 -0.16882583 0.80927145
0.010283892 -0.17472303 0.81202894
0.012226218 -0.17284548 0.81065726
0.01584962 -0.17450371 0.81190073
0.019012123 -0.17520189 0.81242156
-0.0031804782 -0.17255184 0.81276643
-0.00149753 -0.16739643 0.80771589
0.0014076227 -0.17375791 0.81020051
0.0049648453 -0.1736412 0.81060034
0.007180396 -0.17353919 0.81056833
0.0099125886 -0.17372651 0.81046134
0.01708523 -0.17261817 0.8097266
-0.0027256713 -0.16924013 0.811692
0.017797627 -0.17009941 0.8113963
0.018132258 -0.16836569 0.81230593
-0.0021521891 -0.16655104 0.80994785
0.018726069 -0.16673101 0.81104141
-0.0015566117 -0.1635181 0.81059408
0.019264976 -0.16317962 0.81144899
-0.0014534434 -0.15992045 0.81194949
0.019784028 -0.16020627 0.811593
-2.6503445e-05 -0.15875305 0.80932462
0.02030337 -0.15797478 0.81112421
-0.00064816599 -0.15470104 0.81231785
2.16316e-05 -0.15363787 0.81059009
0.020769192 -0.15459138 0.81169868
0.02115107 -0.15363742 0.81079692
0.0016236634 -0.15339537 0.81003278
0.021287343 -0.1513152 0.81165189
0.027626695 -0.15093851 0.81246412
0.002621077 -0.15110968 0.80938482
0.021690741 -0.14842674 0.81149775
0.0012899045 -0.14482148 0.81198615
0.021159772 -0.14600115 0.81051809
0.016402865 -0.16510548 0.79941171
0.0051817275 -0.147156 0.80952913
0.016607909 -0.14126244 0.81019461
0.019813461 -0.14213283 0.81109023
0.022430276 -0.14481466 0.81091332
0.0025328423 -0.13973753 0.81152761
0.003448955 -0.13822268 0.81045121
0.014415986 -0.14212026 0.80904776
0.016698405 -0.13964894 0.81134266
0.019585451 -0.14275371 0.81063539
0.022261437 -0.13983171 0.81151867
0.024346424 -0.13827147 0.81100768
0.0027296434 -0.13628079 0.81262869
0.0037058473 -0.13830008 0.81009406
0.006913784 -0.1384019 0.80941451
0.010691239 -0.13628399 0.81118315
0.012657018 -0.13899924 0.81083983
0.016011022 -0.13736266 0.81265116
0.023787316 -0.13639343 0.81212151
0.024518838 -0.13721846 0.81161743
0.002764083 -0.13359003 0.81102437
0.0047460273 -0.13348384 0.81200284
0.0085545601 -0.13574563 0.81082314
0.010041881 -0.1342091 0.81243283
0.023163678 -0.13419972 0.81287467
0.024540849 -0.13470075 0.81158817
-0.0017845772 -0.13196124 0.81186038
0.0059405691 -0.13074858 0.81135601
0.00749418 -0.1304085 0.81088483
0.017347323 -0.13036175 0.8106814
0.023919804 -0.13027245 0.81200773
-0.0063197454 -0.17763045 0.81471151
-0.0042560557 -0.17765251 0.81477028
-0.0019510004 -0.17750674 0.81485426
0.0013505223 -0.17747746 0.81538266
0.0048336927 -0.17730814 0.81577426
0.007958496 -0.17723887 0.81572074
0.01040474 -0.17724778 0.81546968
0.013371319 -0.17743051 0.81528598
-0.0038194421 -0.17553931 0.81424624
-0.00095173583 -0.17299625 0.81177801
0.0019170878 -0.1736553 0.81232756
0.0041567739 -0.17605443 0.81420171
0.0075897514 -0.17588113 0.8141951
0.0095557887 -0.17334163 0.81241477
0.014190408 -0.174812 0.81309581
0.016584629 -0.17371307 0.81342351
-0.0038698828 -0.17288244 0.81452131
0.016353644 -0.17335385 0.81300151
-0.0035863314 -0.16949023 0.81431669
0.017198538 -0.1699252 0.8143605
-0.0032805651 -0.16583751 0.81512564
-0.0026866111 -0.16503301 0.81344873
0.017732235 -0.1662083 0.8153879
0.018125486 -0.16531532 0.81439376
-0.0031472687 -0.16427301 0.81546181
-0.0026214519 -0.16325922 0.81422788
0.018488059 -0.16429557 0.81381375
-0.0023493753 -0.16057706 0.81489009
0.019077394 -0.1606995 0.81430554
-0.0018412577 -0.15788937 0.81474483
0.019659456 -0.15693091 0.81449568
-0.0011583808 -0.15469633 0.81431204
0.019930229 -0.15505041 0.81480688
0.00044828933 -0.15324323 0.81245923
3.8382415e-05 -0.15015864 0.81304419
0.020516258 -0.15184081 0.81476092
0.021132737 -0.15037134 0.81328571
-1.7529572e-05 -0.1477645 0.81510943
8.9679554e-05 -0.14757144 0.81488413
0.021172965 -0.14810699 0.81466645
-8.1356338e-05 -0.14699614 0.81580341
0.0042182533 -0.1471201 0.81184685
0.021703349 -0.14509094 0.81447011
0.0010980776 -0.14257044 0.8145209
0.020185208 -0.14322077 0.81283605
0.018464716 -0.15343131 0.8030054
0.0016375821 -0.13920739 0.81483221
0.019967321 -0.13865937 0.81360668
0.021551516 -0.14115891 0.8137387
0.022416949 -0.14444348 0.81118429
0.0022796616 -0.13711201 0.81396753
0.013909291 -0.13563883 0.81316316
0.015785581 -0.13936111 0.81211317
0.01827517 -0.13820386 0.81308353
0.017343525 -0.14257739 0.81129932
0.026429614 -0.13586549 0.81353855
0.0025155565 -0.13421567 0.81497961
0.0049572838 -0.13526329 0.81292045
0.0082556689 -0.13233219 0.81317711
0.011381 -0.13534939 0.81250691
0.013390332 -0.13393454 0.81419581
0.01726125 -0.13694549 0.81374931
0.02210018 -0.13374041 0.8139298
0.0063187731 -0.13323003 0.81344432
0.0083539821 -0.13173239 0.81369281
0.011173633 -0.13181151 0.81434029
0.012721685 -0.13177498 0.81554955
0.022396712 -0.13161346 0.81476599
0.0059526567 -0.1288636 0.81538028
0.0079613114 -0.12851109 0.81495023
-0.011427387 -0.18512063 0.81892729
-0.0095909089 -0.18248408 0.81871188
-0.0018506112 -0.18011086 0.81875873
0.0018659832 -0.18002479 0.8187564
0.0039907233 -0.18005019 0.81894106
0.0064093256 -0.18014839 0.81899387
0.010743838 -0.18021184 0.81890392
-0.0066906735 -0.17855889 0.81776094
-0.0029280707 -0.17721187 0.81602776
-0.00018767251 -0.17801252 0.81633306
0.003511454 -0.17698789 0.81566358
0.00435034 -0.17893235 0.81759018
0.0085268999 -0.17762212 0.81626028
0.01041784 -0.17890976 0.81733131
0.013449375 -0.17588361 0.81508768
-0.0050793397 -0.17536624 0.81767339
0.014375855 -0.17658816 0.81677723
0.015145557 -0.17496093 0.817352
-0.0011265579 -0.16589087 0.81081372
0.01593394 -0.17230999 0.81708777
-0.0044641816 -0.16968147 0.81747705
0.016423471 -0.16945 0.81777692
-0.0019788695 -0.16498102 0.81482601
0.017192308 -0.16726825 0.81671888
-0.0012579185 -0.16255863 0.81555265
0.017500259 -0.16405301 0.81804514
0.018174788 -0.162789 0.81645137
-0.0032313075 -0.16147347 0.81778044
-0.0028039229 -0.16113614 0.81633312
0.018289691 -0.16001427 0.8179273
-0.00063963351 -0.15726358 0.81571007
0.018770412 -0.15855768 0.81708366
0.0004940175 -0.15427977 0.81555212
0.019367902 -0.15425266 0.81770343
-0.0013008997 -0.15166542 0.817285
0.020040384 -0.1504457 0.81755263
0.0018617432 -0.14963958 0.8154999
0.02046326 -0.14846502 0.8174538
0.02102489 -0.14729151 0.81611472
-0.00036927627 -0.14543556 0.81803948
0.00010840075 -0.14464717 0.81689924
0.020711856 -0.14603169 0.81831336
0.021158746 -0.14480287 0.81726485
0.029848373 -0.15440997 0.79869384
0.00013981981 -0.14417315 0.81289262
0.021597277 -0.14248548 0.81754827
0.00097378239 -0.13959049 0.81710523
0.0219319 -0.13903485 0.81745458
0.0022953202 -0.13845782 0.81523508
0.020642331 -0.13604091 0.81630772
0.021816749 -0.13630916 0.8175754
0.025469406 -0.13734871 0.81662929
0.0045708483 -0.13636257 0.81530005
0.018629054 -0.13540438 0.81413966
0.018185418 -0.13401806 0.81644255
0.021296289 -0.13438156 0.81847668
0.0025935327 -0.13127613 0.81788987
0.0037126215 -0.1299829 0.81674802
0.011308189 -0.12911969 0.81687891
0.014651959 -0.13217252 0.81556988
0.016509805 -0.13123427 0.81742376
0.018840751 -0.13135296 0.81842995
0.0043653389 -0.12863003 0.81681353
0.0072746784 -0.12858835 0.81600815
0.010462581 -0.12747508 0.81774992
0.01302223 -0.13018714 0.81684774
0.015084462 -0.12837283 0.81895375
0.0059027686 -0.125239 0.81880623
0.0072644376 -0.12545231 0.81849718
0.0098022372 -0.12575062 0.81885564
-0.0089280671 -0.1832104 0.82083082
-0.0070755808 -0.18143761 0.82113427
-0.0023523925 -0.17960264 0.81899667
0.0023831076 -0.1786034 0.81800175
0.0029286419 -0.17984019 0.81821656
0.0045109903 -0.1812185 0.82065505
0.0068673384 -0.18024664 0.81939459
0.010733525 -0.18113014 0.8205598
0.012535413 -0.18058957 0.82071728
-0.0064330334 -0.1792089 0.82060212
-0.0057976325 -0.17861621 0.81927967
0.012483316 -0.17747799 0.81916606
-0.0062994338 -0.17489488 0.82095575
-0.0058268849 -0.17561705 0.81949031
0.014468198 -0.17557415 0.82049572
0.015113555 -0.17415939 0.81931633
-0.0064336495 -0.17389715 0.82177567
-0.0054866374 -0.17229117 0.81974763
0.014914838 -0.17180641 0.82179111
0.015198371 -0.17307398 0.81968844
-0.0053748209 -0.16956928 0.82090968
0.015587962 -0.17032628 0.82024461
-0.0021979818 -0.16695437 0.81876212
0.016387912 -0.16592528 0.82057273
-0.0042618215 -0.16362441 0.82035136
0.016840925 -0.16309424 0.82101667
-0.0035659175 -0.16002524 0.8199808
0.017464777 -0.16090909 0.82034451
-0.0031968448 -0.15776992 0.8202343
-0.0027408577 -0.15609382 0.81977361
0.017750792 -0.15786785 0.82172471
0.018280324 -0.15677503 0.82037652
-0.0026634645 -0.15468445 0.82044965
0.018602764 -0.15397801 0.82088697
-0.0022132399 -0.15170759 0.82077295
0.019194087 -0.15158816 0.8201378
-0.0016429712 -0.14842992 0.82077116
0.019701231 -0.14831845 0.82054782
-0.0011098577 -0.14600135 0.82039773
0.020207332 -0.14538898 0.82082081
-0.00036423333 -0.14255619 0.82021528
0.00014470142 -0.14113368 0.81930077
0.020819746 -0.14240842 0.82091945
0.021217633 -0.14195198 0.8195473
-0.0011634371 -0.14954716 0.81496501
0.00042676419 -0.13842745 0.82025421
0.02129662 -0.13932298 0.82109809
0.00073727971 -0.14127348 0.81749231
0.021843396 -0.13632298 0.82075989
0.0012062471 -0.13370615 0.82060611
0.021748776 -0.13364021 0.82010633
0.028152985 -0.132099 0.82002544
0.0020072942 -0.13023724 0.82038999
0.021265769 -0.13949642 0.8096481
0.019281484 -0.13279615 0.81873685
0.019266905 -0.13279243 0.81873167
0.0025432596 -0.12807702 0.82029742
0.0034285299 -0.12739083 0.81912071
0.013642649 -0.12702481 0.81940728
0.016588094 -0.12961644 0.81911129
0.019009445 -0.1275962 0.8212021
0.002864453 -0.1254418 0.8215192
0.0040966221 -0.12548199 0.81921244
0.0092509678 -0.12644312 0.81766337
0.0099632582 -0.12578502 0.81865007
0.013488255 -0.1302166 0.8184737
0.015865387 -0.12542775 0.82139701
0.0050794734 -0.12192956 0.82144415
0.0082618501 -0.12555699 0.81974101
0.010214596 -0.12242541 0.82157856
-0.011639619 -0.18606867 0.82332724
-0.013001299 -0.18447222 0.82497311
-0.010261618 -0.18533869 0.823587
-0.0075227972 -0.18347177 0.82427239
-0.0044104126 -0.1836534 0.82459372
-0.0017564647 -0.18323222 0.82481468
0.0029795046 -0.18307699 0.8245523
0.00427166 -0.18323477 0.82439983
0.0078550763 -0.18346813 0.82376331
0.010623466 -0.17887998 0.82164109
-0.0059395558 -0.17523669 0.82000357
-0.0028577005 -0.17644806 0.81997198
-0.0014216718 -0.18241771 0.82303613
0.0014468379 -0.18238278 0.82336909
0.0043560024 -0.18244876 0.8228206
0.0062554842 -0.18070854 0.81967539
0.01035572 -0.18138118 0.82217181
0.012188324 -0.18084134 0.82349974
-0.0044295294 -0.17559573 0.81882721
0.013288155 -0.17802173 0.82349032
-0.0072083888 -0.17531599 0.82363319
0.013908598 -0.17553964 0.82340777
-0.0032934539 -0.1716444 0.81963938
0.014426255 -0.17260686 0.82349622
-0.0063348804 -0.16983238 0.8243506
-0.0056531494 -0.16921492 0.82221878
0.014805935 -0.16939926 0.8242808
0.015220496 -0.16830353 0.82336241
-0.0033377905 -0.16674677 0.82105964
0.015421741 -0.16592453 0.82418513
-0.0050248858 -0.16309117 0.82375669
0.015869042 -0.16415529 0.82383567
-0.0017328066 -0.16151412 0.8207128
0.016756061 -0.15978833 0.82394427
-0.0003294583 -0.15942536 0.82058001
0.017479792 -0.15856849 0.82226074
-0.0035920618 -0.15459378 0.82405508
0.017592514 -0.15520662 0.82399046
0.018196367 -0.15368384 0.822694
-0.0030452721 -0.15174779 0.82399112
0.0027543467 -0.1541315 0.81826866
0.01842439 -0.15049452 0.82405335
0.0010344115 -0.15074421 0.82133162
0.018935861 -0.14935425 0.82279742
-0.001542336 -0.1445761 0.82313073
0.019468898 -0.14538841 0.82362878
-0.00063626346 -0.14401592 0.81877524
0.020105628 -0.14210048 0.8237412
-0.00073056552 -0.14279544 0.82114428
0.020461185 -0.14039995 0.82377273
0.021146325 -0.13891466 0.82241553
-0.00030714646 -0.13669991 0.8243714
0.00020446989 -0.13567765 0.82303602
0.020927213 -0.13655527 0.82478452
0.021347409 -0.13603565 0.82320219
0.001479377 -0.14177129 0.81896889
0.021732448 -0.13307713 0.8227815
0.0012000647 -0.13051631 0.8232941
0.020980941 -0.12961434 0.82222712
0.02181947 -0.1303017 0.82306379
0.0028839554 -0.13212442 0.82096803
0.020384578 -0.12721995 0.82266533
0.020208381 -0.13259125 0.82001388
0.0022998857 -0.12502791 0.82331657
0.0031007458 -0.12392557 0.82240278
0.014268165 -0.12321415 0.822474
0.015561175 -0.1272403 0.82117105
0.019567443 -0.1270249 0.82235724
0.0027902499 -0.12195515 0.82421321
0.0044947388 -0.12405007 0.82127011
0.0065322369 -0.12067741 0.82223463
0.010309793 -0.12130483 0.82243615
0.013819486 -0.12472133 0.82169372
0.016061898 -0.12208758 0.8239342
0.01871217 -0.12245089 0.82495332
0.0048203073 -0.12113536 0.82273197
0.0093862992 -0.12266932 0.82136917
0.011238373 -0.12166478 0.8226611
0.01314951 -0.11944224 0.82479799
0.0073084184 -0.11654133 0.8248809
-0.00078466971 -0.11021871 0.82467151
-0.012473515 -0.18717949 0.82597041
-0.01184615 -0.18658426 0.82520843
0.0095132273 -0.1799164 0.82245588
-0.0093554007 -0.18326086 0.82780641
-0.0073985159 -0.18440366 0.82644963
-0.0042843027 -0.18459457 0.82604289
-0.00039508234 -0.18317868 0.82518369
0.0037846335 -0.18239538 0.82506734
0.0043685921 -0.18442817 0.82610285
0.006168176 -0.18126586 0.82364982
0.010161241 -0.18105282 0.82409936
-0.013281533 -0.18165064 0.82567942
-0.002417363 -0.17563565 0.82116544
0.011538064 -0.18178521 0.82629895
0.012228929 -0.18074758 0.82547051
-0.0098422896 -0.17965803 0.82696784
-0.0085078897 -0.17817649 0.82613909
0.012609689 -0.1784337 0.82644463
-0.0043100105 -0.1690577 0.8205213
0.013261148 -0.17552948 0.82621711
-0.0052545611 -0.17049235 0.82417089
0.013781061 -0.17168829 0.82688749
-0.0068257102 -0.16923517 0.82638848
0.014148609 -0.17026319 0.82625341
1.620152e-06 -0.1632597 0.82049155
0.0087937489 -0.15894327 0.81443357
0.014682851 -0.16660962 0.82670248
0.015203966 -0.16577139 0.82507336
-0.0061034793 -0.1645788 0.82684124
-0.00095645332 -0.16198421 0.82277203
0.01538061 -0.16346356 0.82629186
-0.0052214852 -0.16016497 0.82671022
0.015941665 -0.16102089 0.82606721
-0.0046230615 -0.15614535 0.8232705
0.016623029 -0.15695238 0.82638329
-0.0043161036 -0.1545862 0.82701063
0.017070716 -0.15463512 0.82642031
-0.0032399164 -0.15048401 0.82315588
0.017679546 -0.1518638 0.82613111
0.018066552 -0.15111738 0.82510304
-0.0018099064 -0.14846942 0.82026142
-0.0027498074 -0.14761607 0.82571459
0.017884605 -0.14884764 0.82741767
0.018362002 -0.14767489 0.82623959
-0.0030758856 -0.14647917 0.82790977
-0.0026140427 -0.1457219 0.82648206
0.018739777 -0.14544718 0.82649195
-0.0011970224 -0.1433675 0.82386285
0.019349957 -0.14281732 0.82609987
-0.0014453378 -0.13926093 0.82695228
0.019973092 -0.13913621 0.82659411
0.0027955826 -0.14089666 0.81800789
0.020686686 -0.13629875 0.82604533
0.021072634 -0.13504691 0.82554513
-0.00054506783 -0.13410932 0.82728821
0.00019367099 -0.13274051 0.82567334
0.021294367 -0.13307814 0.82602721
0.003580587 -0.13270915 0.8234368
0.021646332 -0.13014542 0.8260746
0.0042238995 -0.13133812 0.82244235
0.021872228 -0.12750362 0.82687581
0.024396485 -0.12861073 0.82598275
0.0017311182 -0.12473004 0.82669485
0.020010885 -0.12337779 0.82509923
0.021910107 -0.12618531 0.82474875
0.001289979 -0.12608136 0.82203686
0.003034232 -0.12008304 0.82664263
0.018093931 -0.12509885 0.82249224
0.018193664 -0.12326305 0.8245886
0.019398019 -0.12472488 0.82453942
0.0028208492 -0.11875565 0.82693189
0.0041679428 -0.12266011 0.82219875
0.010433583 -0.11762199 0.82515156
0.014215101 -0.12105609 0.8232069
0.0167304 -0.12017648 0.82514971
0.018629154 -0.11885694 0.82745332
0.0045303106 -0.14586069 0.80292964
0.0029705507 -0.11656123 0.82737064
0.0043663853 -0.1155808 0.82618278
0.0077296267 -0.11711404 0.82461596
0.010858906 -0.11543932 0.82677954
0.013032696 -0.11631564 0.82697934
0.0022527366 -0.11204521 0.82598054
0.0048425025 -0.11273386 0.82720298
0.0074472502 -0.11625114 0.82466215
0.0069253421 -0.10550404 0.82766485
0.0091719488 -0.10431451 0.82671237
0.010205794 -0.099729121 0.82632816
0.010152766 -0.097702689 0.82769078
-0.01033227 -0.18657136 0.82878166
-0.005739057 -0.18362094 0.82493305
-0.0044842246 -0.18710271 0.82914388
-0.0004030689 -0.18544844 0.8273285
0.0015447622 -0.18563475 0.82811493
0.0048024249 -0.18728629 0.82930666
0.0081004258 -0.18710817 0.82971442
0.0093410844 -0.18616115 0.83096933
-0.0098967254 -0.18437487 0.82945728
-0.0085705724 -0.1851245 0.82840633
-0.0024569412 -0.18589894 0.82804638
0.0014771984 -0.18575464 0.82822454
0.0030667679 -0.18580095 0.828004
0.0099726133 -0.18480964 0.82925767
-0.0086644115 -0.17609999 0.82628906
0.011248606 -0.18099448 0.82969856
-0.0072420575 -0.1718563 0.82527977
0.011807157 -0.17874482 0.82953632
0.012061398 -0.17822686 0.82885855
-0.0091817137 -0.17576838 0.82978672
0.002472573 -0.16332105 0.8149302
0.012563501 -0.17541784 0.82898879
-0.006983459 -0.1657504 0.82489777
0.012716414 -0.17299822 0.82998639
-0.0078342017 -0.16965519 0.82944489
0.013383185 -0.16974804 0.82976985
-0.0072022406 -0.16682427 0.82933104
0.014123939 -0.1661485 0.82949603
-0.006738977 -0.16342959 0.83010727
0.024426902 -0.15359078 0.80140257
0.014684384 -0.16370271 0.82915932
0.015062219 -0.162799 0.82826841
-0.0061364393 -0.16140367 0.82946247
0.0067911628 -0.15739043 0.82036608
0.014908183 -0.16105302 0.83037275
0.015278001 -0.15982844 0.82955486
-0.004842672 -0.15859644 0.82757741
0.015784191 -0.15768826 0.82907748
-0.0047542192 -0.15358855 0.8295477
0.016223697 -0.15498765 0.82930982
-0.0019478475 -0.15605067 0.82434595
0.016897483 -0.1506532 0.82989562
-0.0039364602 -0.14897414 0.8294391
0.017420016 -0.14956905 0.82880133
-0.003301945 -0.14546643 0.82963508
-0.0029035131 -0.1440735 0.8289969
0.017764207 -0.14600129 0.83014649
0.018249422 -0.14496036 0.82888395
-0.0033039965 -0.1438245 0.83087325
-0.0027069291 -0.14236094 0.82959431
0.018625198 -0.14179184 0.82980943
-0.0022743593 -0.13951273 0.83011293
0.019306757 -0.13985111 0.82876605
-0.0015206897 -0.13658918 0.82945961
0.019705206 -0.13622919 0.82974988
0.0012598402 -0.13565882 0.82564199
0.020243263 -0.1334808 0.82968521
-0.00042009316 -0.13106421 0.82911777
0.020640759 -0.13117842 0.8300848
0.021236138 -0.13038452 0.82838863
0.0003855752 -0.12748192 0.82969397
0.02140712 -0.1278262 0.82950324
0.0016795712 -0.1240379 0.83031362
0.021750998 -0.12473743 0.82968915
0.0025972682 -0.12159206 0.82942498
0.0031927128 -0.12033383 0.83028418
0.020865628 -0.12443649 0.82768846
0.026245551 -0.12046631 0.82815456
0.0025077092 -0.11788001 0.82943511
0.0030109989 -0.11976406 0.82973069
0.019910485 -0.11837564 0.82843441
0.020116955 -0.12083869 0.82772917
0.017593183 -0.13743405 0.8163892
0.0026328841 -0.11572677 0.82941824
0.0030857576 -0.11535694 0.82808173
0.0137383 -0.11474489 0.82837373
0.015313369 -0.11756258 0.82662827
0.019158266 -0.11951051 0.82834166
0.021451363 -0.11653246 0.83064681
0.02607641 -0.11545248 0.83085018
0.002783691 -0.11346363 0.8299545
0.0040408117 -0.11392344 0.82711864
0.0077197873 -0.11160958 0.8282907
0.010792016 -0.11268795 0.82861078
0.013488071 -0.1186344 0.82596892
0.016010871 -0.11320374 0.83035851
-0.0027404982 -0.10824724 0.82991999
0.00059714081 -0.11032014 0.82803857
0.0045761261 -0.11122141 0.82837021
0.0083150584 -0.11088371 0.82799625
0.011717132 -0.11562224 0.8278749
0.01240219 -0.11062358 0.830639
0.0047801454 -0.10733566 0.83063477
0.0068564471 -0.10620942 0.82988876
0.0074338806 -0.10352021 0.83030766
0.0045527993 -0.10031373 0.82891214
0.0083107185 -0.10128234 0.82919228
0.0016089483 -0.098410681 0.82930791
0.0058827293 -0.096319787 0.83077824
0.0075397082 -0.097342744 0.82951832
0.0044385502 -0.094796047 0.83071798
-0.010030249 -0.18953468 0.83331633
-0.0046696649 -0.18914795 0.83341646
-0.0012949156 -0.18930796 0.83331573
0.0051313229 -0.18904375 0.83341837
-0.0083145406 -0.18761083 0.83227766
-0.0046451665 -0.18843798 0.8315717
-0.001696134 -0.18876934 0.83174491
0.0013403641 -0.1887345 0.83205515
0.0044368156 -0.18879376 0.83225632
0.0076855891 -0.18749075 0.83270735
-0.010067753 -0.18416344 0.83298904
0.009746965 -0.18406293 0.83268487
-0.010335617 -0.18143788 0.83188486
0.010515265 -0.18152817 0.83221817
-0.010190152 -0.17824255 0.83261544
0.011044713 -0.17843375 0.83248103
-0.0081430199 -0.16921695 0.82818002
0.011477682 -0.17634837 0.8321895
0.012022334 -0.17461464 0.8313688
-0.0075669535 -0.16896439 0.82978582
-0.0086925682 -0.17101121 0.83107454
0.011833549 -0.17266205 0.8334806
0.012449458 -0.17200637 0.83167547
-0.0092690391 -0.16966857 0.83376098
-0.0062456704 -0.16363195 0.82707572
0.012646955 -0.16944201 0.83274573
-0.0060179378 -0.16222057 0.82884324
0.013516326 -0.16622336 0.8317641
-0.0045735128 -0.15847664 0.82764286
0.014049012 -0.16289705 0.83242655
-0.0066843 -0.15992859 0.83242679
0.014433783 -0.16113089 0.83198851
-0.0054120566 -0.16069207 0.8270123
-0.0056211567 -0.15646102 0.83109522
0.014763829 -0.15785809 0.83283949
0.01526694 -0.15646967 0.83166838
-0.0061200564 -0.15506195 0.83382696
-0.005571309 -0.15454973 0.83209056
0.015394451 -0.15368229 0.83353662
-0.0039332667 -0.15360135 0.82934594
0.016195148 -0.15201712 0.83173835
-0.0019289368 -0.15163329 0.82889116
0.0167592 -0.14824313 0.83263856
-0.0040805554 -0.14564553 0.83265656
0.017269641 -0.1455418 0.83250028
0.00034773181 -0.14815411 0.82778978
-0.0028739909 -0.14109053 0.83124167
0.017768789 -0.14334227 0.83222973
0.018090703 -0.14271104 0.83130616
-0.0032683522 -0.1405886 0.83337885
-0.0026155151 -0.1385408 0.83233011
0.018425224 -0.13904905 0.83275324
-0.0005166576 -0.14070332 0.82882166
0.018914912 -0.13613224 0.83289981
0.00045046702 -0.13717441 0.82965761
0.01941389 -0.13396554 0.83261752
-0.0010637803 -0.12968279 0.83295822
0.019970106 -0.13035999 0.83318615
-0.00059017807 -0.12787572 0.83288604
0.00016184806 -0.12628117 0.83194059
0.020716079 -0.12782152 0.8325634
0.02113848 -0.12751208 0.83135289
-0.0002854378 -0.12580898 0.83364391
0.00075060804 -0.12947005 0.82932073
0.020999353 -0.12544598 0.83352774
0.021450438 -0.12411816 0.83260125
0.0032218676 -0.13367867 0.82615274
0.0039507421 -0.12085112 0.83293527
0.0067108413 -0.12055223 0.83316267
0.021716509 -0.12205683 0.83255303
0.0031726505 -0.12401009 0.82947421
0.0034240559 -0.11984507 0.83237982
0.0214651 -0.12377112 0.83010328
0.0019079364 -0.11572105 0.83244872
0.020204527 -0.11439293 0.83132911
0.022038631 -0.11553848 0.8327294
0.02048241 -0.12032226 0.82594472
0.004524807 -0.12033048 0.82749528
0.014762054 -0.11116357 0.83127564
0.014581323 -0.1174491 0.82830477
0.019579582 -0.11266567 0.83235878
0.022128107 -0.11810053 0.83066958
0.025431583 -0.11245719 0.83246523
0.02702764 -0.11266792 0.83207875
0.0029278419 -0.11040516 0.8318069
0.003346357 -0.10900134 0.83120918
0.011118914 -0.10839617 0.83173513
0.014036513 -0.10912586 0.83253628
0.015182802 -0.11368286 0.83114952
0.018907234 -0.11082076 0.83346051
0.026378099 -0.10994946 0.83383632
0.028091997 -0.10953531 0.83290493
0.0013841264 -0.10680057 0.83300722
0.0042432835 -0.11071611 0.83036429
0.0068784887 -0.11067229 0.82979828
0.010543904 -0.10708631 0.83244616
0.014784261 -0.12110314 0.82652599
0.027690675 -0.10639336 0.83364689
0.0046906616 -0.10405505 0.83324093
0.0066853482 -0.1081715 0.83114028
0.0098667843 -0.1043347 0.83341199
0.0273702 -0.10254141 0.83158916
0.0042635114 -0.099678695 0.83272296
0.014086371 -0.10193229 0.83137083
0.018050799 -0.10186278 0.83369476
0.0043795244 -0.096995227 0.83209085
0.0041918624 -0.09562166 0.83252102
0.0077618337 -0.093577705 0.83331621
0.011752827 -0.093286775 0.83160698
0.0049976581 -0.092525333 0.83266044
0.0066418257 -0.090157948 0.8325966
0.0099843331 -0.092542313 0.83164394
-0.011230076 -0.19078013 0.83400464
-0.0042335014 -0.18941748 0.83451939
-0.001297478 -0.18950221 0.8349846
0.0012957494 -0.1891418 0.83507603
-0.013450222 -0.18667799 0.83640504
-0.011366837 -0.18731804 0.83519286
-0.0072590308 -0.18692538 0.83533871
0.002948375 -0.18876721 0.83540833
0.0053638103 -0.18789458 0.83574194
0.007591533 -0.18698472 0.83517534
0.014143869 -0.18726724 0.8365314
-0.01028992 -0.18466356 0.83623439
-0.0081483666 -0.18419066 0.83652341
0.0084149037 -0.185289 0.83578044
0.0093343202 -0.183935 0.83448923
-0.0099923741 -0.18122625 0.83523399
0.0088985488 -0.18291153 0.83662641
0.0097212493 -0.18143453 0.83544058
-0.010573671 -0.17801233 0.83572072
0.0099568907 -0.17932266 0.8359189
-0.010666599 -0.17538989 0.83579814
0.010755154 -0.17573956 0.83542603
-0.010338109 -0.17241853 0.83560306
0.011305073 -0.17249081 0.83569908
-0.0095474832 -0.16947895 0.83513123
0.011770812 -0.17040609 0.83542234
0.012274683 -0.16852878 0.83478087
-0.009220181 -0.16712123 0.83611119
-0.0086017018 -0.16586375 0.83498025
0.012609864 -0.16618457 0.8354516
-0.0082227737 -0.1629397 0.83573049
0.012979615 -0.16423304 0.83548015
-0.0076188026 -0.16033591 0.83539981
0.013554457 -0.1606538 0.83574986
-0.0069516478 -0.15753303 0.83509666
0.014133664 -0.15711831 0.83588743
-0.0064876974 -0.15407299 0.83578968
0.014544232 -0.15533756 0.83552963
0.015077859 -0.15433192 0.83427811
-0.0057751159 -0.15159583 0.83493567
0.014865325 -0.15201142 0.83675194
0.015425658 -0.15086238 0.83561105
-0.0035402749 -0.15093639 0.83230132
0.015886405 -0.14969362 0.83473986
-0.0021959366 -0.14557743 0.83296239
0.016444277 -0.14579669 0.83537495
-0.00048417517 -0.14335142 0.83148873
0.016924147 -0.14170457 0.83651841
-0.0034778866 -0.13928965 0.83499098
0.017591676 -0.14008108 0.83522129
-0.0042131897 -0.13995431 0.82559079
-0.0028619315 -0.13589619 0.83508778
0.017812051 -0.13743807 0.83632165
0.018306319 -0.13608286 0.83537352
-0.0025489039 -0.13387561 0.83550411
0.018789222 -0.13305381 0.83571589
-0.0019391304 -0.13050024 0.83575058
0.019426368 -0.13075875 0.83504909
-0.0016499375 -0.13416849 0.83094031
0.020102067 -0.12718089 0.83545995
-0.00057066639 -0.12502962 0.83544731
0.020377981 -0.12525502 0.83597952
-0.00019922346 -0.1221597 0.83647507
0.00097937463 -0.12496 0.8329125
0.0059731542 -0.12156495 0.83479977
0.0071338876 -0.1210172 0.83447111
0.020942941 -0.12244151 0.83584785
0.021310134 -0.12143673 0.83509368
0.0012359302 -0.11878712 0.83493841
0.021353805 -0.11867415 0.83629364
0.0011646635 -0.11530155 0.83529633
0.021727985 -0.11614741 0.83631545
0.0015247349 -0.11303873 0.83476686
0.021984238 -0.11221948 0.8357197
0.024141731 -0.11120729 0.83438021
0.0018615342 -0.10939176 0.83596909
0.017576586 -0.10844214 0.83443666
0.019576605 -0.1096077 0.83459491
0.021093834 -0.11357486 0.83351201
0.024859438 -0.10987408 0.83489698
0.0048827063 -0.11117392 0.83213931
0.0030957244 -0.1050597 0.83435309
0.011126731 -0.10526107 0.83402562
0.011087217 -0.11033948 0.83099264
0.016692368 -0.1062792 0.83562326
0.01759005 -0.10961041 0.83400923
0.022114016 -0.10748912 0.83682853
0.026266839 -0.10686587 0.83602113
0.0024699788 -0.10456769 0.83566487
0.0053466731 -0.10770183 0.83284676
0.0083490647 -0.10315179 0.83445352
0.011171027 -0.10716616 0.83287603
0.014128317 -0.10801188 0.83253789
0.015998047 -0.10422686 0.83680296
0.025166638 -0.10382958 0.83641773
0.028436894 -0.10386674 0.83610404
0.0045351069 -0.10075011 0.8360737
0.0073296987 -0.10345664 0.834014
0.010469929 -0.10124998 0.83663952
0.020577764 -0.10077164 0.83591878
0.024675436 -0.099733658 0.83605498
0.0044755414 -0.097737595 0.83603752
0.0066366191 -0.098567389 0.83668959
0.010045701 -0.096986957 0.83422565
0.0046466445 -0.093821526 0.83568472
0.0081697786 -0.095600188 0.83536208
0.002373093 -0.090973891 0.83469254
0.0031446151 -0.092042707 0.8347199
0.0097188037 -0.091842934 0.83491093
0.0022968422 -0.087067835 0.83549863
0.0033106217 -0.088952698 0.83565646
0.0016353762 -0.086040974 0.83651578
-0.0042838743 -0.18999574 0.83822584
-0.0019975174 -0.1900139 0.83820796
-0.014738688 -0.18687275 0.837098
0.0020340779 -0.18737195 0.8373819
0.003908853 -0.18713845 0.83702075
0.0064862557 -0.18602036 0.83720833
0.011359344 -0.18720728 0.83758032
-0.0065683024 -0.18317279 0.83745283
-0.002134464 -0.18393637 0.83885521
0.0009053048 -0.18397653 0.83955377
0.0047991402 -0.18452783 0.83915681
0.0070850505 -0.18406515 0.83863437
0.013005376 -0.18425035 0.8392337
-0.0094449269 -0.1811033 0.83773041
-0.0072584371 -0.18182597 0.83849078
-0.0032131092 -0.18248804 0.83910358
0.0084571932 -0.18199022 0.83864021
0.0092048859 -0.18085389 0.837363
0.014589693 -0.18174855 0.83837068
-0.015267155 -0.17708121 0.83736289
-0.012331871 -0.17831628 0.83871222
-0.010563236 -0.17772056 0.83882493
0.0089773359 -0.17867808 0.83947521
0.0096060755 -0.17811599 0.83822691
-0.013656362 -0.17616709 0.83898872
-0.011266209 -0.17478119 0.83848214
0.010166455 -0.17521258 0.83811677
-0.00918792 -0.16985525 0.83341086
0.010755723 -0.17222741 0.83809096
-0.010900029 -0.17005639 0.8387742
0.011176676 -0.16940856 0.83852416
-0.007497936 -0.16516329 0.8355667
0.011768304 -0.16691998 0.83817273
0.012302605 -0.16507648 0.83738971
-0.0094160205 -0.16371077 0.83884764
-0.0087272041 -0.16231695 0.83757448
0.011876315 -0.16442887 0.83976823
0.012464123 -0.16306593 0.83846182
0.019791413 -0.15076007 0.80482662
-0.0092195645 -0.16150826 0.83973342
-0.0019220754 -0.15853772 0.83132851
0.012838259 -0.16084144 0.838413
-0.0066192336 -0.1565709 0.83396852
0.013515426 -0.15740651 0.83824182
-0.00734533 -0.15488207 0.83827907
0.013913765 -0.15384914 0.83927608
-0.0036577159 -0.15068497 0.83383512
0.014321097 -0.15255101 0.83853769
-0.006296068 -0.14922088 0.83853889
0.015435684 -0.14940262 0.80437058
0.01471526 -0.14921565 0.83931422
0.015321764 -0.14798878 0.83796471
-0.0060257153 -0.14612721 0.83994728
-0.0055421456 -0.14574188 0.83823431
0.015594927 -0.14507826 0.83900934
-0.0024567745 -0.14292443 0.83484715
0.01612098 -0.14321062 0.83845919
-0.00025976822 -0.14046784 0.83381599
0.016866909 -0.13942967 0.8385185
-0.0037445331 -0.13640179 0.83805686
0.017356902 -0.13536803 0.83968282
-0.0035013177 -0.13371418 0.83930904
-0.0010539294 -0.13655204 0.8272571
0.017669456 -0.13444258 0.83917242
0.018348636 -0.13314928 0.83748341
-0.0030561392 -0.13111517 0.83964229
-0.0027124207 -0.13016199 0.83897179
0.018655274 -0.12997507 0.83862644
-0.001111816 -0.13013162 0.83362234
0.019086564 -0.12798359 0.83851027
-0.00013653698 -0.12668177 0.83373988
0.019710412 -0.12488744 0.83839661
-0.00079682108 -0.12078027 0.8386448
0.020352408 -0.12112465 0.83870518
0.0017510351 -0.12368149 0.83230323
0.012804921 -0.14645086 0.80499941
0.020973392 -0.11914997 0.83781141
0.021313423 -0.11805705 0.83715981
-0.00026430268 -0.11650894 0.83922094
0.00032815788 -0.11564448 0.83774871
0.020867905 -0.11665036 0.83986109
0.021275057 -0.11595861 0.83845609
0.0019954077 -0.11533852 0.83622146
0.020844111 -0.11826272 0.83261377
0.0011486954 -0.10951253 0.83842736
0.02234122 -0.11233635 0.83533734
0.001433366 -0.10648658 0.8384465
0.020240337 -0.10647534 0.83753777
0.020987809 -0.10915701 0.83691955
0.021304082 -0.12097 0.8291257
0.0022341979 -0.10282221 0.83829546
0.0067657633 -0.12382641 0.82068974
0.014008344 -0.10234767 0.83736491
0.01723842 -0.10675732 0.83462173
0.019282587 -0.10365505 0.83870983
0.012849157 -0.11669021 0.82821351
0.025368067 -0.10413525 0.83902514
0.0025539354 -0.10084309 0.83835125
0.0036822713 -0.10053726 0.83769476
0.0086287446 -0.099189177 0.83743793
0.01106463 -0.099699132 0.83803135
0.013444738 -0.099884108 0.83893603
0.014951489 -0.10583803 0.8351903
0.02529262 -0.10056307 0.83733463
0.028119439 -0.10088646 0.83845687
0.030049184 -0.10040726 0.83705962
0.0041239709 -0.09948606 0.83731627
0.0072726775 -0.10044621 0.83587134
0.0097794849 -0.10118731 0.83629256
0.012594719 -0.098625958 0.83951837
0.024926875 -0.097797409 0.83983839
0.0046724034 -0.09484984 0.83955318
0.0073339725 -0.095590793 0.8394419
0.0017783816 -0.09049309 0.83743334
0.0049788072 -0.090857461 0.83951956
0.0077602891 -0.088686645 0.83861309
0.0093884636 -0.088223271 0.83833194
-0.0043899617 -0.19064561 0.84051067
-0.0018727906 -0.18936476 0.84178889
-0.00032159491 -0.18612333 0.84041202
0.0039363704 -0.18387635 0.84004861
-0.0099362265 -0.18010254 0.8401767
-0.0025232355 -0.18038702 0.84074134
0.0015361425 -0.18213584 0.84221518
0.0051741684 -0.18116154 0.84200978
0.0075900196 -0.18078274 0.84162205
0.010518219 -0.18176842 0.84241569
-0.006873576 -0.17228554 0.83463264
-0.0085641742 -0.17941552 0.84109229
-0.0055285064 -0.17701192 0.84246236
0.0082846247 -0.17888762 0.84174538
0.0091658607 -0.17735694 0.8403821
-0.015283356 -0.17436868 0.84126228
-0.013271496 -0.1754382 0.84223288
-0.0044274838 -0.16242833 0.84156805
0.0087143527 -0.17643917 0.84260952
0.0093739899 -0.17533632 0.84119827
-0.01589133 -0.17113613 0.84235901
-0.013407573 -0.17258856 0.84154075
-0.011305471 -0.17286211 0.84078765
0.0098552471 -0.17234401 0.84171402
-0.018751498 -0.16960505 0.84232843
-0.0056576966 -0.13195059 0.84072459
-0.013358424 -0.16976473 0.84180582
-0.011431704 -0.16948955 0.84081101
0.010344794 -0.16985121 0.8416003
0.011588207 -0.1553964 0.80046904
-0.0065097851 -0.14060028 0.83143646
-0.0080708275 -0.16207051 0.82989568
-0.006293349 -0.16015081 0.83480394
0.010993751 -0.16657281 0.84142244
0.0093884636 -0.088223271 0.83833194
-0.00289448 -0.1489916 0.8305847
0.011194162 -0.16366066 0.84261346
0.012018935 -0.16263244 0.8401286
-0.0080883112 -0.16317675 0.83618486
-0.0088428529 -0.15913443 0.84024543
0.011694249 -0.16118565 0.84240991
0.012465129 -0.1597615 0.84067398
-0.0092745963 -0.1585024 0.84211767
-0.0048979083 -0.15324603 0.834759
0.012603739 -0.15748933 0.84178966
-0.0065926304 -0.15824117 0.84126163
0.013173491 -0.15517938 0.8411423
-0.0043552313 -0.14994746 0.83734488
0.013748706 -0.1511742 0.84157073
-0.0063234805 -0.14967498 0.83814275
0.014131447 -0.14858764 0.841901
-0.0061631682 -0.14496833 0.84123611
-0.0041872878 -0.16237661 0.84060848
0.014708381 -0.1461454 0.84144831
0.01519759 -0.14536151 0.84017116
-0.006067466 -0.14383256 0.8417604
-0.0056633535 -0.14271651 0.84083414
0.01554782 -0.14195901 0.84158289
-0.0039039014 -0.1447705 0.84148401
0.016056931 -0.14024524 0.84087652
-0.0046690828 -0.14099471 0.83801484
0.016778288 -0.13637513 0.84114385
-0.0041563432 -0.1334866 0.84207577
0.017211528 -0.1330359 0.84208274
-0.0034482877 -0.13056891 0.84143239
0.017837109 -0.1314583 0.84065485
0.018188681 -0.13045344 0.84002125
-0.0035575284 -0.15107337 0.82566559
-0.0026801883 -0.12679337 0.8410877
0.017861325 -0.12873241 0.84245896
0.018493427 -0.12739088 0.84107119
-0.0033562228 -0.13527407 0.84065992
0.018962551 -0.12396797 0.84174681
-0.0022440075 -0.12867516 0.84136963
0.019671464 -0.1217814 0.84069878
-6.7905057e-06 -0.1273254 0.84189546
0.020053441 -0.11865669 0.84154016
-0.0019501515 -0.1222417 0.8415826
0.020767117 -0.11540709 0.84137249
0.021025211 -0.11439998 0.84079134
0.0012554557 -0.12534671 0.83514988
0.00014746354 -0.11186196 0.84108222
0.020902183 -0.11337151 0.84259629
0.020021457 -0.12029173 0.83681345
-0.0015261322 -0.11752332 0.84149832
0.021814601 -0.10982879 0.8415221
0.0034519439 -0.11948787 0.83509558
0.022073893 -0.11143587 0.83861923
0.0021432904 -0.11230844 0.84143776
0.020437039 -0.10257361 0.84043378
0.02077052 -0.10804124 0.83929598
0.025030855 -0.10329223 0.84104824
0.0038491113 -0.10978995 0.83958298
0.01701604 -0.099792428 0.84039259
0.018259218 -0.10462731 0.839481
0.022000138 -0.10191393 0.84193134
0.02321092 -0.11851002 0.83309245
0.0056349444 -0.11140008 0.83536005
0.0099585438 -0.09620627 0.8400138
0.012253297 -0.10984723 0.83771545
0.013648486 -0.10467348 0.8394835
0.018604577 -0.097808868 0.84269732
0.023577273 -0.096639574 0.840967
0.026248781 -0.098093413 0.84154266
0.027669281 -0.098842375 0.84173
0.0025526336 -0.09572275 0.84265411
